# .PCD v0.7 - Point Cloud Data file format
VERSION 0.7
FIELDS x y z intensity ring
SIZE 4 4 4 4 2
TYPE F F F F U
COUNT 1 1 1 1 1
WIDTH 1226
HEIGHT 1
VIEWPOINT 0 0 0 1 0 0 0
POINTS 1226
DATA ascii
-0.89274538 -0.081089027 0.20695497 86 14
-2.4555547 -0.22260924 -0.043037634 66 7
-0.88311255 -0.07990329 0.23759589 54 15
-1.7240865 -0.15387066 -0.46380374 1 0
-3.5593641 -0.31703877 0.062374901 20 8
-1.7508594 -0.1556441 -0.40581173 7 1
-3.5650299 -0.31691629 0.18757208 42 9
-1.818683 -0.16135345 -0.35490477 15 2
-1.8673557 -0.16501477 -0.29691264 15 3
-0.97486675 -0.085975714 0.12016319 20 11
-2.3412979 -0.20607205 -0.28858662 34 4
-0.9209162 -0.081055507 0.14642268 73 12
-0.87130398 -0.076535806 -0.076522738 13 5
-0.90160245 -0.079038672 0.17592591 75 13
-2.4174356 -0.21149796 -0.12717639 8 6
-0.89884704 -0.078480981 0.20830467 62 14
-2.4602635 -0.21481286 -0.043107443 77 7
-0.91031641 -0.079322323 0.24484283 23 15
-1.7092148 -0.14653181 -0.45966265 1 0
-3.5544186 -0.30472201 0.062270187 39 8
-1.7513658 -0.14983712 -0.40581173 8 1
-3.5700941 -0.30480981 0.18778142 35 9
-1.8094543 -0.15417111 -0.35299668 25 2
-1.8777342 -0.15965822 -0.29847699 21 3
-0.97514647 -0.08274243 0.12016319 25 11
-2.3637269 -0.20014919 -0.29126775 66 4
-0.91135162 -0.07700897 0.14485833 66 12
-2.4002807 -0.20240119 -0.21074259 26 5
-0.91164118 -0.076873206 0.17783399 64 13
-2.4260848 -0.2041501 -0.12759508 7 6
-0.90104425 -0.075662896 0.20875457 45 14
-2.4350934 -0.20405279 -0.04265368 67 7
-0.9202134 -0.076948904 0.24743101 16 15
-1.7404964 -0.14340104 -0.46794486 1 0
-1.7577047 -0.14420076 -0.40716141 9 1
-1.7943019 -0.14688835 -0.34994373 29 2
-1.032603 -0.08435113 0.090641975 2 10
-1.8704046 -0.15246074 -0.29722553 25 3
-0.97938651 -0.079660088 0.12065066 25 11
-2.3485823 -0.19061284 -0.28931785 54 4
-0.91358382 -0.073986717 0.1451712 61 12
-2.3790939 -0.19267125 -0.20882516 36 5
-0.92168826 -0.074481376 0.17974208 63 13
-2.4407179 -0.19680442 -0.12832777 3 6
-0.91295767 -0.073454902 0.21145399 40 14
-2.4318042 -0.19523078 -0.042583872 69 7
-0.91084802 -0.07296519 0.24484283 5 15
-1.6947656 -0.13367887 -0.45552155 1 0
-1.7523692 -0.13760705 -0.40581173 9 1
-1.796761 -0.14077747 -0.35032535 32 2
-1.0050826 -0.078572191 0.088201612 2 10
-1.8532008 -0.14454876 -0.29440969 27 3
-0.9796586 -0.076240651 0.12065066 24 11
-2.3611083 -0.18333562 -0.29078028 52 4
-0.91974491 -0.0712552 0.1461098 53 12
-2.3797519 -0.184366 -0.20882516 49 5
-0.91215563 -0.070506878 0.17783399 59 13
-2.4672775 -0.19027995 -0.12968852 2 6
-0.92486644 -0.071164638 0.21415339 34 14
-2.4364586 -0.18704766 -0.04265368 69 7
-1.7414552 -0.13124616 -0.46794486 1 0
-1.7353493 -0.13017727 -0.4017626 9 1
-1.7972416 -0.13450426 -0.35032535 37 2
-1.0252194 -0.076547012 0.089944728 2 10
-1.8458143 -0.137492 -0.29315823 30 3
-0.97200018 -0.07223206 0.1196757 25 11
-2.3676727 -0.17553291 -0.29151151 56 4
-0.93574804 -0.069209874 0.14861277 49 12
-2.3843853 -0.17593515 -0.20917378 56 5
-0.90848035 -0.067033462 0.17707075 61 13
-2.4340649 -0.17917369 -0.12790908 5 6
-0.93871373 -0.06893485 0.21730271 29 14
-2.4450743 -0.17912605 -0.0427933 69 7
-1.7920241 -0.12845413 -0.48140347 1 0
-1.7319056 -0.12384053 -0.40086278 9 1
-1.7977223 -0.12791654 -0.35032535 40 2
-1.0175434 -0.072224356 0.08924748 2 10
-1.8384241 -0.13016731 -0.29190674 33 3
-0.97026622 -0.068698481 0.11943197 30 11
-2.3544097 -0.16628863 -0.28980532 65 4
-0.94386595 -0.066498138 0.14986424 49 12
-2.3949225 -0.16830932 -0.21004534 52 5
-0.92438751 -0.064801805 0.1801237 57 13
-2.4446676 -0.17094779 -0.12843245 2 6
-0.93312812 -0.065087028 0.21595301 46 14
-2.4516692 -0.17100744 -0.042898018 72 7
-1.7323478 -0.11749233 -0.40086278 9 1
-1.7824878 -0.12058045 -0.3472724 41 2
-1.069474 -0.072159253 0.093779579 1 10
-1.8487219 -0.12441278 -0.2934711 37 3
-0.97843409 -0.065673567 0.12040692 27 11
-2.3371775 -0.1564642 -0.28761166 44 4
-0.94016129 -0.062775254 0.1492385 46 12
-2.3875713 -0.15900077 -0.2093481 100 5
-0.93832046 -0.062487628 0.18279503 56 13
-2.4412634 -0.16214846 -0.12822311 6 6
-0.93140513 -0.061700787 0.21550311 56 14
-2.4383118 -0.16109759 -0.04265368 69 7
-1.7463605 -0.11232009 -0.40401211 9 1
-1.77704 -0.11367049 -0.34612754 46 2
-1.0935915 -0.069761246 0.095871314 1 10
-1.8393085 -0.11700851 -0.29190674 41 3
-0.98261952 -0.06250982 0.12089439 25 11
-2.347615 -0.14893387 -0.28883037 24 4
-0.93248898 -0.058994178 0.14798702 51 12
-2.3821466 -0.15028919 -0.20882516 40 5
-0.93462443 -0.058801755 0.1820318 58 13
-2.4358611 -0.15282446 -0.12790908 7 6
-0.92579019 -0.057921309 0.21415339 54 14
-2.4348676 -0.15233551 -0.042583872 67 7
-1.7350526 -0.1058165 -0.40131268 9 1
-1.7793479 -0.1082067 -0.34650916 47 2
-1.8357235 -0.1109915 -0.29128101 43 3
-0.9867844 -0.059489872 0.12138188 24 11
-2.3738556 -0.14269646 -0.29199898 24 4
-0.94451052 -0.056610681 0.14986424 52 12
-2.3865845 -0.14304359 -0.20917378 43 5
-0.93480456 -0.055864986 0.1820318 66 13
-2.4423106 -0.14552809 -0.12822311 7 6
-0.93958473 -0.055821758 0.21730271 19 14
-2.4413483 -0.14461502 -0.042688586 72 7
-1.7334658 -0.099647917 -0.40086278 14 1
-1.787555 -0.1024438 -0.34803563 51 2
-1.8203223 -0.10368423 -0.28877807 44 3
-0.98104042 -0.055707578 0.12065066 30 11
-2.3763211 -0.13452141 -0.29224271 22 4
-0.95850807 -0.054092463 0.15205432 48 12
-2.3811016 -0.13437514 -0.20865084 32 5
-0.92715323 -0.052160662 0.18050532 76 13
-2.4348273 -0.13655454 -0.12780441 6 6
-0.96506798 -0.053955566 0.22315145 1 14
-2.441838 -0.13609275 -0.042688586 72 7
-1.71629 -0.09265051 -0.39681366 12 1
-1.7839807 -0.095992424 -0.3472724 59 2
-1.8167281 -0.097118542 -0.28815234 47 3
-0.97131741 -0.051754627 0.11943197 35 11
-2.3668647 -0.12569922 -0.291024 27 4
-0.95474577 -0.050537456 0.15142858 49 12
-2.3934939 -0.12669456 -0.20969671 20 5
-0.93125075 -0.049130816 0.18126856 72 13
-2.4412725 -0.12836912 -0.12811844 6 6
-2.4522829 -0.12808979 -0.042863112 69 7
-1.7204955 -0.086855441 -0.39771348 13 1
-1.7686189 -0.088975392 -0.34421945 59 2
-1.8269206 -0.09126915 -0.28971666 50 3
-0.98537058 -0.049054664 0.12113813 32 11
-2.3672891 -0.1174365 -0.291024 34 4
-0.9489975 -0.046911847 0.15048997 48 12
-2.4178009 -0.11951929 -0.21178845 20 5
-0.94906443 -0.046749122 0.18470311 24 13
-2.4476905 -0.1201404 -0.12843245 3 6
-2.4407313 -0.11894485 -0.04265368 67 7
-1.7285745 -0.081215046 -0.3995131 14 1
-1.7610742 -0.082434401 -0.34269297 59 2
-1.8311745 -0.085074745 -0.29034239 50 3
-1.0053655 -0.046532795 0.12357552 30 11
-2.3696678 -0.10926377 -0.29126775 66 4
-0.96099514 -0.044142768 0.15236719 41 12
-2.3883491 -0.10970746 -0.20917378 18 5
-2.4480948 -0.11159556 -0.12843245 3 6
-2.4391341 -0.11033396 -0.042618778 72 7
-1.7230067 -0.074927069 -0.39816338 16 1
-1.7613512 -0.076286554 -0.34269297 63 2
-1.8215925 -0.078258686 -0.28877807 45 3
-1.013455 -0.043362297 0.12455048 27 11
-2.3660681 -0.10082234 -0.29078028 84 4
-0.97693229 -0.041458238 0.15487014 48 12
-2.3907082 -0.10145488 -0.2093481 30 5
-2.4524605 -0.10321733 -0.1286418 43 6
-2.4435003 -0.10198584 -0.042688586 72 7
-3.075052 -0.1235072 0.053718507 3 8
-1.7037859 -0.068133481 -0.39366436 16 1
-3.5982075 -0.14326055 0.18872347 2 9
-1.7694536 -0.070449777 -0.34421945 64 2
-3.5954318 -0.14252242 0.31480655 19 10
-1.7961947 -0.07088694 -0.28471076 45 3
-1.0016987 -0.039356776 0.12308804 18 11
-2.3664057 -0.0925631 -0.29078028 81 4
-1.0007576 -0.038970198 0.15862457 31 12
-2.3850751 -0.092876486 -0.20882516 22 5
-2.4488144 -0.094502501 -0.12843245 67 6
-2.449836 -0.093684979 -0.0427933 67 7
-3.0914514 -0.11335865 0.053997744 25 8
-1.7001184 -0.062043555 -0.39276454 19 1
-1.7736127 -0.064415686 -0.34498268 57 2
-3.6018808 -0.13018696 0.31532949 42 10
-1.8003794 -0.064758159 -0.28533649 44 3
-1.00183 -0.035860166 0.12308804 14 11
-2.358779 -0.084019512 -0.28980532 81 4
-1.0087841 -0.03575629 0.15987605 21 12
-2.3993225 -0.08504384 -0.21004534 38 5
-2.4271727 -0.085183322 -0.12728105 74 6
-2.452147 -0.08520285 -0.04282821 72 7
-3.0918281 -0.10256668 0.053997744 37 8
-1.7081155 -0.056365695 -0.39456415 20 1
-3.573149 -0.11790949 0.18736275 11 9
-1.758129 -0.057708915 -0.34192973 59 2
-1.8045431 -0.058601879 -0.28596222 41 3
-1.0178216 -0.032875564 0.12503795 9 11
-2.3550897 -0.075657785 -0.28931785 81 4
-1.0049484 -0.032284193 0.1592503 18 12
-2.4015963 -0.076732256 -0.21021965 65 5
-2.4254591 -0.076646656 -0.12717639 66 6
-2.4444208 -0.07681942 -0.042688586 72 7
-3.0921514 -0.092313126 0.053997744 45 8
-1.708293 -0.050701004 -0.39456415 20 1
-1.75047 -0.051341265 -0.34040326 63 2
-1.8047276 -0.052617405 -0.28596222 39 3
-1.0476888 -0.030362701 0.12869403 6 11
-2.3592961 -0.067961834 -0.28980532 84 4
-0.99320757 -0.028436836 0.15737309 5 12
-2.393883 -0.068121888 -0.2095224 73 5
-2.4336858 -0.068829469 -0.12759508 66 6
-2.4406762 -0.068174593 -0.042618778 72 7
-3.0684667 -0.080887251 0.053578887 49 8
-1.7026153 -0.044584557 -0.39321443 24 1
-1.7506307 -0.045536149 -0.34040326 63 2
-1.7970014 -0.046114657 -0.28471076 35 3
-1.0537418 -0.026857108 0.12942526 2 11
-2.3674569 -0.059926808 -0.29078028 78 4
-2.3921044 -0.060132958 -0.2093481 69 5
-2.4438944 -0.060581304 -0.12811844 71 6
-2.4428985 -0.059703417 -0.04265368 75 7
-3.0687304 -0.070175 0.053578887 54 8
-1.6949677 -0.038464155 -0.39141485 24 1
-1.7468536 -0.039337005 -0.33964002 66 2
-1.7892517 -0.039666492 -0.28345928 36 3
-2.3755901 -0.051835626 -0.29175523 84 4
-2.3942914 -0.051825635 -0.2095224 75 5
-2.4341071 -0.051837459 -0.12759508 66 6
-2.4590862 -0.051510122 -0.04293292 75 7
-3.0749547 -0.059578825 0.053683605 52 8
-1.6892464 -0.032435503 -0.39006513 25 1
-1.750906 -0.033313751 -0.34040326 63 2
-1.7893792 -0.033420973 -0.28345928 36 3
-2.3559091 -0.043179117 -0.28931785 81 4
-2.4004338 -0.043576676 -0.21004534 71 5
-2.4282823 -0.043233793 -0.12728105 68 6
-2.4632497 -0.04299631 -0.043002732 75 7
-3.0791428 -0.048909042 0.053753413 58 8
-1.6912978 -0.026569296 -0.39051503 24 1
-1.7470857 -0.027140293 -0.33964002 61 2
-1.7973857 -0.027294597 -0.28471076 34 3
-2.362 -0.035044041 -0.29004908 87 4
-2.4025636 -0.035226475 -0.21021965 73 5
-2.4304154 -0.03478634 -0.12738572 66 6
-2.4453893 -0.034146354 -0.042688586 72 7
-1.7114854 -0.021508478 -0.45862737 1 0
-3.0832937 -0.038209997 0.053823221 72 8
-1.6933289 -0.020688759 -0.39096493 21 1
-1.7393173 -0.020947458 -0.33811355 64 2
-1.79747 -0.021019904 -0.28471076 34 3
-2.3640883 -0.027233955 -0.2902928 84 4
-2.3927107 -0.026727837 -0.2093481 69 5
-2.4385107 -0.026388776 -0.12780441 64 6
-2.4374907 -0.025951711 -0.042548969 72 7
-1.7308651 -0.016011503 -0.46380374 4 0
-3.081404 -0.02796695 0.053788319 67 8
-1.7109261 -0.015229818 -0.39501405 4 1
-1.7393771 -0.015179491 -0.33811355 63 2
-1.7896285 -0.014993328 -0.28345928 34 3
-2.3721058 -0.019459248 -0.29126775 81 4
-2.3848169 -0.01873049 -0.20865084 71 5
-2.4485707 -0.018377092 -0.12832777 68 6
-2.4495611 -0.017956413 -0.042758394 72 7
-1.7347723 -0.010294935 -0.46483904 3 0
-3.0774803 -0.017725339 0.053718507 65 8
-1.7596849 -0.0098281298 -0.40626162 1 1
-1.7433444 -0.0094326036 -0.33887681 63 2
-1.7778163 -0.0089985635 -0.28158206 34 3
-2.3681891 -0.011160159 -0.29078028 81 4
-2.3988142 -0.0104666 -0.20987104 78 5
-2.4306431 -0.010181845 -0.12738572 66 6
-2.4656065 -0.009467097 -0.043037634 79 7
-1.7463894 -0.0039624632 -0.46794486 4 0
-3.0795233 -0.0069872723 0.053753413 60 8
-1.7394407 -0.0030359793 -0.33811355 63 2
-1.7817882 -0.0024879661 -0.28220782 32 3
-2.3602729 -0.0028838012 -0.28980532 81 4
-2.4028208 -0.0020970937 -0.21021965 73 5
-2.4306641 -0.0012724036 -0.12738572 64 6
-2.4576256 -0.00085819262 -0.042898018 72 7
-1.7328696 0.0021167113 -0.46432137 6 0
-3.087527 0.0043110135 0.05389303 46 8
-1.8844295 0.0029600435 -0.43505535 1 1
-1.7335509 0.003025176 -0.33696869 30 2
-1.781786 0.0037317001 -0.28220782 31 3
-2.3602676 0.0057670921 -0.28980532 78 4
-2.4028137 0.0062903962 -0.21021965 75 5
-2.4306536 0.0072116931 -0.12738572 66 6
-2.4576137 0.0077205957 -0.042898018 79 7
-1.707738 0.0080472492 -0.4575921 6 0
-3.0974939 0.014596094 0.054067552 41 8
-2.0792811 0.01016143 -0.48004553 0 1
-1.7817638 0.009640363 -0.28220782 30 3
-2.3642061 0.013616948 -0.2902928 78 4
-2.3908229 0.014604785 -0.20917378 78 5
-2.444597 0.015359928 -0.12811844 68 6
-2.4415746 0.016193191 -0.042618778 72 7
-1.6825886 0.01350871 -0.4508628 5 0
-3.0834267 0.025294278 0.053823221 43 8
-2.3244081 0.019878646 -0.45183572 100 2
-3.6817956 0.032130685 0.32212761 1 10
-1.7698674 0.015753951 -0.2803306 27 3
-2.3720839 0.021942999 -0.29126775 84 4
-2.3907614 0.022533052 -0.20917378 80 5
-2.4485228 0.023932179 -0.12832777 71 6
-2.4535007 0.024837302 -0.04282821 79 7
-1.6670774 0.019203985 -0.44672167 5 0
-3.0793207 0.036009878 0.053753413 50 8
-3.6047912 0.043414053 0.18893282 2 9
-3.5959947 0.043935787 0.31463224 33 10
-2.3799326 0.030324215 -0.29224271 84 4
-2.3986371 0.03098065 -0.20987104 75 5
-2.4364417 0.032320086 -0.12769975 68 6
-2.4573982 0.033455979 -0.042898018 72 7
-1.6534787 0.024820132 -0.44309825 6 0
-3.0931723 0.046971116 0.053997744 56 8
-2.3340278 0.036258616 -0.45374379 71 2
-3.6137488 0.056768779 0.31620103 41 10
-2.0422819 0.032438945 -0.3235065 1 3
-2.3599639 0.038308848 -0.28980532 78 4
-2.3985143 0.039353907 -0.20987104 73 5
-2.4303231 0.04072376 -0.12738572 64 6
-2.4692626 0.042238969 -0.043107443 42 7
-1.6437244 0.030413054 -0.44051 10 0
-3.1109838 0.05810418 0.05431189 58 8
-2.3221097 0.044181105 -0.45145413 81 2
-2.3561823 0.045652658 -0.37325269 12 3
-2.3637853 0.046624795 -0.2902928 84 4
-2.4063301 0.047884665 -0.21056828 75 5
-2.4301662 0.049206991 -0.12738572 61 6
-3.5706987 0.07354781 -0.062339999 27 7
-1.63202 0.035895705 -0.43740419 22 0
-3.1227572 0.069228455 0.054521319 46 8
-2.3180158 0.052198183 -0.4506909 81 2
-2.3655925 0.054922357 -0.29053652 90 4
-2.3941875 0.056421816 -0.2095224 73 5
-2.4439566 0.058022026 -0.12811844 16 6
-1.6241527 0.041678909 -0.43533364 23 0
-3.1145005 0.079924129 0.054381698 38 8
-1.9344535 0.049979661 -0.44675279 1 1
-3.2644145 0.084910624 0.1711386 1 9
-2.3256593 0.060899388 -0.45221734 79 2
-2.339998 0.062092189 -0.37074974 72 3
-2.3753085 0.063443996 -0.29175523 81 4
-2.3919845 0.064725496 -0.2093481 71 5
-41.815727 1.1534152 -0.73017377 9 7
-1.6375145 0.047742151 -0.43895712 18 0
-3.1221817 0.091573358 0.054521319 38 8
-1.9576318 0.057759143 -0.4521516 0 1
-3.1502879 0.09349826 0.16517229 12 9
-2.3293574 0.069133639 -0.45298058 79 2
-2.3358181 0.070141412 -0.37012401 69 3
-2.3790283 0.072270103 -0.29224271 84 4
-3.5567482 0.10866818 -0.3113203 68 5
-42.204964 1.3189657 -0.73705006 27 7
-1.6450611 0.053710055 -0.44102767 14 0
-3.1438277 0.10319221 0.054905269 41 8
-1.8834066 0.062149972 -0.43505535 1 1
-3.1219959 0.10356725 0.1637069 33 9
-2.3349884 0.077459529 -0.45412543 75 2
-3.1601655 0.10538484 0.27663234 12 10
-2.3474042 0.078691669 -0.3720012 69 3
-2.3609059 0.079969279 -0.29004908 43 4
-3.5563471 0.12108298 -0.3113203 72 5
-39.326279 1.3664279 -0.68685693 30 7
-1.6506553 0.059661053 -0.44258058 13 0
-3.1574373 0.11467449 0.055149604 38 8
-1.9532861 0.071282446 -0.4512518 0 1
-3.1176431 0.11377403 0.16349754 46 9
-2.3268561 0.085321441 -0.45259899 75 2
-3.1597784 0.11641608 0.27663234 17 10
-2.3550117 0.08717753 -0.37325269 64 3
-3.5330069 0.13140102 -0.43409866 73 4
-3.5598845 0.1336458 -0.31166893 72 5
-1.6369361 0.064601295 -0.43895712 14 0
-3.1730247 0.12577729 0.055428844 31 8
-1.9802998 0.078844838 -0.45755047 0 1
-3.1052749 0.12363526 0.16286951 61 9
-2.3245988 0.092958741 -0.45221734 79 2
-3.139467 0.12609419 0.2748892 10 10
-3.0021064 0.12110199 -0.47587368 60 3
-3.5226343 0.14271452 -0.43287995 72 4
-3.5434961 0.14479943 -0.31027445 70 5
-1.6347827 0.069946699 -0.43843949 13 0
-3.2005601 0.13750048 0.055917513 30 8
-1.8826811 0.081212208 -0.43505535 1 1
-3.1227829 0.1352511 0.16381156 66 9
-2.332123 0.10100676 -0.45374379 67 2
-3.125098 0.1358978 0.27366903 10 10
-3.0056355 0.13122912 -0.47649944 66 3
-3.5161653 0.15474819 -0.43214872 36 4
-3.5350347 0.15619762 -0.3095772 72 5
-39.059628 1.7395334 -2.0490575 7 6
-1.6403179 0.075920723 -0.4399924 14 0
-3.1960654 0.14848617 0.055847701 7 8
-1.9213185 0.089598678 -0.44405338 1 1
-3.1202967 0.14605752 0.1637069 62 9
-2.6494555 0.12401798 -0.51556593 99 2
-3.1007223 0.14568435 0.2715773 13 10
-3.0051591 0.14171931 -0.47649944 66 3
-3.5037065 0.16645665 -0.4306863 22 4
-3.5225272 0.16796613 -0.30853131 112 5
-40.636272 1.9661095 -0.71013844 25 7
-1.6554786 0.082414523 -0.44413349 12 0
-3.2834046 0.16403185 0.057383511 2 8
-1.9326719 0.096890278 -0.44675279 1 1
-3.1018152 0.15604542 0.16276483 66 9
-2.6627321 0.13395613 -0.51823723 32 2
-3.0942254 0.15620498 0.27105436 26 10
-3.0125372 0.15260825 -0.47775093 68 3
-3.4793139 0.17747165 -0.42776144 11 4
-3.5318682 0.18077032 -0.30940288 36 5
-1.6493934 0.087884396 -0.44258058 10 0
-3.3267429 0.17784061 0.05815142 1 8
-1.9206462 0.10300983 -0.44405338 1 1
-3.1012516 0.16687192 0.16276483 73 9
-2.6544065 0.14282812 -0.51671082 21 2
-3.0777454 0.16614579 0.26965985 8 10
-3.0238214 0.16376409 -0.47962815 68 3
-3.4192085 0.18637443 -0.42044926 7 4
-3.5332053 0.19320664 -0.3095772 12 5
-3.5497496 0.19535409 -0.18631603 1 6
-1.6510055 0.093750894 -0.44309825 8 0
-3.1544061 0.17967246 0.055149604 1 8
-1.951404 0.11149163 -0.4512518 0 1
-3.1006501 0.17769638 0.16276483 63 9
-2.6421053 0.15188006 -0.51442105 14 2
-3.0751576 0.17677386 0.26948556 27 10
-3.0271754 0.17454569 -0.48025388 68 3
-3.3848472 0.19635433 -0.41630572 4 4
-3.5111272 0.20614006 -0.18432724 5 6
-3.2718332 0.19266319 -0.057208989 1 7
-1.6390806 0.099101588 -0.4399924 2 0
-3.0938454 0.18760179 0.054102462 2 8
-1.9548725 0.1188802 -0.4521516 0 1
-3.0601072 0.18662733 0.1606714 37 9
-2.6454499 0.16180259 -0.51518428 11 2
-3.0685229 0.18767884 0.26896262 33 10
-3.0146854 0.18491411 -0.47837666 72 3
-1.8882039 0.11647979 -0.232283 1 4
-1.8115841 0.11238843 -0.15879777 3 5
-1.981423 0.12361884 -0.10404389 1 6
-1.6965431 0.1088186 -0.45552155 1 0
-3.0971282 0.19919604 0.05417227 2 8
-3.059437 0.19730878 0.1606714 58 9
-2.6605425 0.17204958 -0.51823723 12 2
-3.0519087 0.19789223 0.26756814 10 10
-3.0100448 0.19570597 -0.47775093 74 3
-1.8659959 0.12164965 -0.22960186 8 4
-1.7813588 0.11675634 -0.15618308 18 5
-1.8793397 0.12383671 -0.09870562 7 6
-1.7308675 0.11678491 -0.46483904 1 0
-3.0625334 0.20717111 0.053578887 5 8
-1.9773264 0.13410683 -0.45755047 0 1
-3.0527878 0.20704709 0.16035739 71 9
-2.6501634 0.18020546 -0.51632917 8 2
-3.075089 0.20963791 0.26965985 30 10
-3.0152917 0.20609003 -0.47868952 55 3
-1.829934 0.12539418 -0.22521456 13 4
-1.7849373 0.12293677 -0.15653172 24 5
-1.8709489 0.1295165 -0.098286942 21 6
-3.1698916 0.21999249 -0.05546375 1 7
-1.7458869 0.12361562 -0.4689801 1 0
-3.0420854 0.21699233 0.15983403 73 9
-2.6319268 0.18773566 -0.51289463 7 2
-3.080339 0.22026055 0.27018279 37 10
-3.0126216 0.21594685 -0.47837666 41 3
-1.8195854 0.13106759 -0.22399586 22 4
-1.7864844 0.1293105 -0.15670602 27 5
-1.8983973 0.13774413 -0.099752344 8 6
-3.2089925 0.23396441 -0.056161843 1 7
-1.7916585 0.13345747 -0.48140347 1 0
-3.0710232 0.22875509 0.053753413 58 8
-2.0735343 0.15481779 -0.48004553 0 1
-3.0452929 0.22790734 0.16004337 73 9
-2.6273055 0.19708659 -0.51213133 7 2
-3.0755372 0.23125111 0.26983419 40 10
-3.173104 0.23914336 0.39071316 2 11
-1.7696306 0.13368012 -0.21790241 21 4
-1.7482753 0.13268106 -0.1533941 18 5
-1.9138114 0.14591588 -0.10058971 18 6
-3.2201195 0.2460788 -0.056371275 1 7
-1.6948816 0.13219944 -0.45552155 1 0
-3.0661767 0.23969775 0.053683605 57 8
-3.0484192 0.23938014 0.16025271 78 9
-2.6285586 0.20641017 -0.51251298 7 2
-3.0588217 0.24073412 0.26843968 37 10
-1.8865515 0.14880587 -0.29972848 4 3
-3.1484594 0.24889456 0.3877883 25 11
-1.7295508 0.13702999 -0.21302763 21 4
-1.7160233 0.13625918 -0.15060511 17 5
-1.9053267 0.15196034 -0.10017103 15 6
-3.1155436 0.24957627 -0.054556224 1 7
-1.7136645 0.13968399 -0.46069792 1 0
-3.0553563 0.2495853 0.053509079 65 8
-3.0555274 0.25067368 0.1606714 76 9
-2.6278222 0.21558499 -0.51251298 7 2
-3.0678909 0.25222626 0.26931125 32 10
-1.862396 0.15344387 -0.29597405 7 3
-3.1159174 0.25727049 0.38388845 10 11
-1.7033439 0.14093807 -0.20985903 30 4
-1.7254649 0.14307164 -0.15147668 25 5
-1.900804 0.15827839 -0.099961683 18 6
-3.118639 0.26078337 -0.054626033 1 7
-1.7401152 0.14795677 -0.46794486 1 0
-3.0584512 0.26058856 0.053578887 67 8
-3.0347793 0.25910443 0.15962468 76 9
-2.6348784 0.22542536 -0.51403946 7 2
-3.0689769 0.26310393 0.26948556 26 10
-1.8342953 0.1575765 -0.29159388 11 3
-3.0774229 0.2649101 0.37925744 11 11
-1.6810861 0.14500649 -0.20717789 44 4
-1.7209852 0.14875108 -0.15112805 41 5
-1.8902911 0.1640491 -0.099438325 26 6
-3.0978353 0.26939142 -0.054276984 5 7
-1.7203448 0.15232618 -0.46276847 1 0
-3.0635459 0.27125856 0.053683605 63 8
-3.0298777 0.26934332 0.15941535 76 9
-2.6125646 0.2327055 -0.50984168 6 2
-3.0839159 0.2752313 0.27088004 11 10
-1.7373524 0.15505409 -0.2762633 14 3
-3.0587325 0.27352259 0.37706378 27 11
-1.6786189 0.15040328 -0.20693417 9 4
-1.7006117 0.15297219 -0.14938495 25 5
-1.8837689 0.16977887 -0.099124312 10 6
-3.0729775 0.27804026 -0.053858127 37 7
-1.7121352 0.1573232 -0.46069792 1 0
-3.0605891 0.28176668 0.053648699 58 8
-1.9463242 0.17952681 -0.4512518 0 1
-3.0388627 0.28083697 0.15993871 71 9
-2.5844095 0.2388386 -0.50449902 5 2
-3.1186965 0.28876296 0.27401763 11 10
-1.7013958 0.1578337 -0.27063167 27 3
-3.0597358 0.28438166 0.37730753 40 11
-1.6881924 0.15750037 -0.14833906 44 5
-1.7956684 0.16815963 -0.094518751 7 6
-3.0739791 0.2889525 -0.05389303 27 7
-1.6731133 0.15962873 -0.45034516 1 0
-3.0356996 0.29016528 0.053229842 73 8
-1.9068885 0.18260492 -0.44225377 1 1
-3.037864 0.29144296 0.15993871 71 9
-2.5659716 0.24617112 -0.50106448 5 2
-3.0998201 0.29793206 0.27244884 22 10
-1.6772391 0.1614998 -0.26687723 36 3
-3.0369892 0.2929638 0.3746264 43 11
-1.6678011 0.16147237 -0.14659595 51 5
-1.7553123 0.17056343 -0.092425302 11 6
-3.0669808 0.2990987 -0.053788319 18 7
-1.661011 0.16432689 -0.44723931 1 0
-3.0545678 0.30273235 0.053578887 70 8
-1.8946041 0.18810494 -0.43955436 1 1
-3.0427904 0.30263767 0.16025271 73 9
-2.5709577 0.25570893 -0.50220931 5 2
-3.0928135 0.30815884 0.2719259 23 10
-1.6727338 0.16696112 -0.26625147 7 3
-3.0398984 0.30395746 0.37511387 96 11
-3.0141678 0.30191669 -0.37194526 69 4
-3.0996039 0.31102085 0.49339435 1 12
-1.6771395 0.16828774 -0.14746751 43 5
-1.740796 0.17528892 -0.091692604 17 6
-3.0718868 0.31040514 -0.05389303 7 7
-1.6469749 0.16874564 -0.44361585 3 0
-3.0495141 0.31298542 0.053509079 67 8
-1.893936 0.1947168 -0.43955436 1 1
-3.0297952 0.31202957 0.15962468 76 9
-1.6970918 0.17477843 -0.33162606 2 2
-3.0937009 0.31915745 0.27210024 23 10
-1.6898251 0.17462616 -0.26906732 1 3
-3.0249975 0.31313616 0.37340769 30 11
-3.0032229 0.31141263 -0.37072656 69 4
-3.0788515 0.31979713 0.49026567 1 12
-1.6805054 0.17455237 -0.14781614 43 5
-1.7242814 0.17970811 -0.090855226 28 6
-3.0648181 0.320503 -0.053788319 27 7
-4.0021501 0.41923046 1.0782403 10 15
-1.6501873 0.17518887 -0.44465113 4 0
-3.0523231 0.32458258 0.053578887 70 8
-1.9203385 0.20454727 -0.44585299 1 1
-3.0247154 0.32218137 0.15941535 66 9
-1.684727 0.17974776 -0.32933635 13 2
-3.0826051 0.32943502 0.27122867 23 10
-3.0277767 0.32464454 0.37389517 22 11
-2.9961965 0.32125843 -0.36999539 67 4
-3.0855727 0.33138624 0.49151716 1 12
-1.6739115 0.18007167 -0.1472932 40 5
-1.7077254 0.18431181 -0.090017848 35 6
-3.0418115 0.32883516 -0.053404365 70 7
-1.6591991 0.18171176 -0.44723931 1 0
-3.0552053 0.33513886 0.053648699 65 8
-1.9893845 0.21857567 -0.46204948 0 1
-3.0117185 0.33090052 0.15878731 48 9
-1.6685097 0.18361555 -0.3262834 24 2
-3.0775347 0.33921903 0.27088004 26 10
-3.0237091 0.333821 -0.4818182 83 3
-3.0089262 0.33271977 0.37170154 28 11
-3.0049801 0.33228341 -0.37121406 69 4
-3.0569696 0.33857232 0.48713696 1 12
-1.6653841 0.18474294 -0.14659595 25 5
-1.7031348 0.18953209 -0.089808509 36 6
-3.0208302 0.33670533 -0.053055316 35 7
-3.9972832 0.44624728 1.0777225 67 15
-1.689302 0.19067985 -0.45552155 1 0
-3.042155 0.34392074 0.053439267 67 8
-2.0661037 0.23394167 -0.48004553 0 1
-3.0264213 0.34321192 0.15962468 41 9
-1.6756947 0.19003248 -0.32780987 34 2
-3.0823319 0.3500973 0.27140298 32 10
-2.999033 0.34116623 -0.47806379 55 3
-3.0216126 0.34426904 0.37340769 26 11
-3.0097184 0.34344596 -0.37194526 67 4
-3.0400684 0.34744674 0.48463401 1 12
-1.6587907 0.18987501 -0.14607303 15 5
-1.7064654 0.19563387 -0.090017848 34 6
-3.9880245 0.4593136 1.075652 51 15
-3.0290186 0.3531484 0.053229842 65 8
-2.0652745 0.24115187 -0.48004553 0 1
-3.0807495 0.36026961 0.1625555 40 9
-3.0830069 0.36162442 0.2715773 38 10
-3.0016861 0.35261691 -0.47868952 34 3
-3.034193 0.35643563 0.37511387 38 11
-3.0085013 0.35394982 -0.37194526 67 4
-3.1094618 0.36637804 0.49589729 1 12
-1.6442671 0.19402972 -0.14485285 5 5
-1.681936 0.19907007 -0.088761792 33 6
-3.0680509 0.36367038 -0.053927936 1 7
-3.9863968 0.47323173 1.075652 25 15
-1.6878943 0.20276293 -0.45552155 1 0
-3.0316746 0.36472568 0.053299651 52 8
-2.0953326 0.25245002 -0.48724398 0 1
-3.097254 0.37371126 0.16349754 32 9
-1.693783 0.20436998 -0.33162606 1 2
-3.0896375 0.37334007 0.27227452 37 10
-3.0004368 0.36309269 -0.47868952 6 3
-3.0230131 0.36635929 0.37389517 46 11
-3.0071838 0.3649742 -0.37194526 67 4
-1.6594026 0.20169133 -0.14624733 3 5
-1.6733005 0.20397325 -0.088343106 33 6
-3.0349388 0.37103039 -0.053369459 1 7
-3.9846356 0.48783949 1.075652 21 15
-1.6680038 0.20628293 -0.45034516 1 0
-3.0303831 0.37530607 0.053299651 49 8
-2.1273153 0.26383963 -0.4948923 2 1
-2.7100639 0.33659574 -0.53083062 100 2
-3.076453 0.38264725 0.27122867 65 10
-3.0315647 0.37813866 0.37511387 40 11
-2.9980123 0.37448493 -0.37097031 65 4
-1.6646194 0.20822403 -0.14677027 3 5
-1.6725782 0.20981297 -0.088343106 36 6
-1.8868394 0.23735946 -0.033194479 3 7
-3.9656582 0.49957249 1.0709932 19 15
-1.6634407 0.21161653 -0.44930989 1 0
-3.0726953 0.39144069 0.054067552 49 8
-2.1399131 0.27299005 -0.4980416 4 1
-2.5803423 0.32963416 -0.50564384 83 2
-3.079051 0.39388874 0.2715773 62 10
-1.9378122 0.24823955 -0.30942741 1 3
-3.0459781 0.39073923 0.37706378 28 11
-2.707257 0.34776756 -0.33514073 22 4
-1.655978 0.21301703 -0.14607303 2 5
-1.6797591 0.21667176 -0.088761792 34 6
-1.8681929 0.2413097 -0.032880332 4 7
-3.933326 0.50875562 1.0627111 16 15
-1.6550299 0.21641944 -0.44723931 1 0
-3.0575006 0.39981306 0.053823221 40 8
-2.1351316 0.27957878 -0.49714181 5 1
-3.0358131 0.39805567 0.16046207 61 9
-2.5830688 0.33914983 -0.50640708 42 2
-3.065805 0.40307602 0.27053142 43 10
-1.9213104 0.25260386 -0.30692446 1 3
-3.0545058 0.40213355 0.37828246 13 11
-2.7198651 0.35855943 -0.33684689 34 4
-1.6591747 0.2193184 -0.14642164 1 5
-1.6869514 0.22328924 -0.089180477 43 6
-1.8613924 0.24704027 -0.032775622 7 7
-3.9104605 0.51968205 1.057017 13 15
-1.67345 0.22447494 -0.4524157 1 0
-2.1225545 0.28547165 -0.49444243 5 1
-3.0363843 0.40891609 0.16056673 66 9
-2.5780387 0.34718975 -0.50564384 83 2
-3.070375 0.41403925 0.27105436 38 10
-1.9125863 0.25825211 -0.30567297 1 3
-3.1101327 0.42050594 0.38535091 15 11
-2.6949911 0.36485565 -0.33392206 33 4
-1.6860788 0.22856627 -0.148862 1 5
-1.6643919 0.22621761 -0.088029087 32 6
-1.8407048 0.25083575 -0.03242657 8 7
-3.8703406 0.52810544 1.0466642 13 15
-1.6726562 0.23031506 -0.4524157 1 0
-3.005111 0.4143208 0.052950602 3 8
-2.1196146 0.29261255 -0.49399251 2 1
-3.0191109 0.41732481 0.15972935 63 9
-2.5729218 0.35564911 -0.50488061 100 2
-3.0708845 0.42502761 0.27122867 55 10
-1.9195001 0.26601097 -0.30692446 1 3
-3.1125782 0.43190551 0.38583836 18 11
-2.6720729 0.37125576 -0.33124092 28 4
-2.6877506 0.37391213 -0.23741224 24 5
-1.6576579 0.23119882 -0.087715074 34 6
-1.7665422 0.24701345 -0.031135093 11 7
-3.8302093 0.53625602 1.0363115 12 15
-1.6565393 0.2339908 -0.44827461 1 0
-3.0254264 0.42788848 0.053334557 12 8
-1.7307526 0.24508983 -0.40356219 1 1
-3.0097258 0.42673954 0.15931067 53 9
-2.5619454 0.3632502 -0.50297254 10 2
-3.0575464 0.43406424 0.27018279 100 10
-1.9302939 0.27437764 -0.30880168 1 3
-2.6471777 0.37722027 -0.32831606 31 4
-2.7080576 0.38686013 -0.23932965 41 5
-1.6884748 0.24150851 -0.089389823 26 6
-1.7043064 0.24437959 -0.030053046 19 7
-3.8206654 0.54852468 1.034241 13 15
-1.6556705 0.24006079 -0.44827461 2 0
-3.0318303 0.43959442 0.053474173 27 8
-1.6932446 0.24581049 -0.39501405 7 1
-3.0260062 0.43982774 0.16025271 71 9
-2.5528255 0.37150684 -0.50144607 100 2
-1.9410034 0.28316164 -0.31067887 0 3
-2.6438806 0.38617152 -0.32807231 33 4
-2.675149 0.39169306 -0.23654069 39 5
-1.7073392 0.25059548 -0.090436541 33 6
-1.6797013 0.24683882 -0.029634187 31 7
-3.7499218 0.55173361 1.015606 16 15
-1.6586441 0.24640648 -0.44930989 3 0
-3.0361326 0.45158562 0.053578887 34 8
-1.7038972 0.25373712 -0.39771348 35 1
-3.0243738 0.45091644 0.16025271 68 9
-2.5456879 0.37954715 -0.50030124 5 2
-3.0701268 0.45828488 0.2715773 26 10
-1.9243739 0.28759953 -0.30817595 1 3
-2.6620796 0.39879966 -0.33050969 22 4
-2.6895282 0.40339231 -0.23793517 40 5
-1.7143543 0.2577419 -0.090855226 46 6
-3.6883397 0.55517501 0.86111259 1 14
-1.6688987 0.25150326 -0.029459663 21 7
-3.6389909 0.54904681 0.98610061 54 15
-1.673053 0.25451875 -0.45345098 11 0
-3.0345378 0.462181 0.053578887 39 8
-1.6644716 0.25380814 -0.38871542 30 1
-3.0405509 0.46418282 0.16119476 58 9
-2.5404661 0.38783783 -0.49953794 5 2
-3.0783556 0.47050479 0.27244884 50 10
-1.907737 0.29192477 -0.30567297 2 3
-3.6765411 0.56455994 0.58913231 1 12
-2.6900733 0.41308054 -0.23810948 37 5
-3.6267145 0.55755663 0.71324408 13 13
-1.6937041 0.26068589 -0.089808509 51 6
-3.6382291 0.5606268 0.84986508 38 14
-1.6680106 0.25732732 -0.029459663 18 7
-3.6198695 0.55909127 0.98144192 69 15
-1.677881 0.26124895 -0.45500392 26 0
-3.0427852 0.4743115 0.053753413 50 8
-1.6577994 0.25871488 -0.38736573 28 1
-3.0370216 0.47395524 0.16109009 55 9
-2.5507352 0.39852178 -0.50182766 100 2
-3.0944107 0.48401853 0.27401763 46 10
-1.9203676 0.30072111 -0.30786306 5 3
-3.6202607 0.56756425 0.44994166 3 11
-1.9944229 0.31303158 -0.24788228 2 4
-3.6434247 0.57184815 0.58412635 42 12
-2.7102656 0.42587024 -0.24002692 29 5
-3.609231 0.56777221 0.71019113 51 13
-1.6829191 0.26504287 -0.08928515 59 6
-3.6266253 0.57180578 0.84761554 68 14
-1.6750492 0.26410306 -0.029599281 31 7
-3.6351695 0.57380313 0.98610061 81 15
-1.7227461 0.27439764 -0.46742722 22 0
-3.0589685 0.48723009 0.054067552 56 8
-1.6627055 0.26513159 -0.38871542 19 1
-3.0274596 0.48329425 0.1606714 51 9
-2.5241258 0.40339595 -0.49686664 100 2
-3.0986044 0.49576077 0.27454057 71 10
-2.4869754 0.39790326 -0.39890796 6 3
-3.6144385 0.57893848 0.44945419 42 11
-1.9894538 0.31901509 -0.2473948 2 4
-3.6160512 0.58049238 0.58005905 61 12
-2.7461381 0.44133434 -0.24333882 22 5
-3.6286509 0.58316374 0.71438891 88 13
-1.6761152 0.26967046 -0.088971131 53 6
-3.6189373 0.58289939 0.84626585 80 14
-1.6741172 0.2699481 -0.029599281 50 7
-3.6407728 0.58772027 0.9881711 70 15
-1.7942846 0.29189616 -0.48709747 17 0
-3.0513284 0.49694005 0.053962842 46 8
-1.6771568 0.2734426 -0.39231464 14 1
-3.0554087 0.49815193 0.16224147 52 9
-2.5266495 0.41239604 -0.49762988 4 2
-3.0890782 0.50474912 0.27384335 46 10
-2.508965 0.41040874 -0.40266237 8 3
-3.6084774 0.59091115 0.44896671 53 11
-1.9922459 0.32659999 -0.24788228 2 4
-3.6063092 0.59120232 0.57880759 81 12
-3.614969 0.59391773 0.71209919 70 13
-1.6751636 0.27551958 -0.088971131 51 6
-3.614958 0.59521097 0.84581596 59 14
-1.6495352 0.27159968 -0.029180422 55 7
-3.6807389 0.60670269 0.99955922 28 15
-1.8046887 0.30005872 -0.49020329 15 0
-3.0476906 0.50672799 0.053927936 32 8
-1.6723962 0.2783629 -0.39141485 8 1
-3.0792625 0.51308185 0.16360222 71 9
-2.5348771 0.42282897 -0.49953794 100 2
-3.0656803 0.5119186 0.2719259 33 10
-2.4939513 0.41644916 -0.40047228 11 3
-3.6202037 0.60516441 0.45067286 67 11
-1.9676572 0.3292731 -0.24495739 2 4
-3.6003268 0.60313356 0.57818186 63 12
-1.9845996 0.33281997 -0.17605458 1 5
-3.6091073 0.60525203 0.71133596 48 13
-1.6742407 0.28107321 -0.088971131 50 6
-1.6663249 0.28034231 -0.029494567 68 7
-3.7414644 0.630135 1.0166413 13 15
-1.7998747 0.30539498 -0.48916802 16 0
-3.0616751 0.5200423 0.054207176 37 8
-1.6618085 0.28256568 -0.38916534 5 1
-3.0872974 0.52550238 0.16412558 47 9
-2.5353966 0.43156096 -0.49991959 6 2
-3.0620017 0.52174735 0.27175158 30 10
-3.6043718 0.61545962 0.44896671 52 11
-1.9567124 0.33446676 -0.2437387 8 4
-3.6196175 0.61936229 0.58162344 22 12
-1.7045679 0.29197976 -0.15130237 1 5
-1.6614383 0.28489006 -0.088343106 48 6
-1.6594238 0.28514129 -0.029389855 67 7
-3.7163954 0.63926071 1.0104296 7 15
-1.8063569 0.31331083 -0.49123856 17 0
-3.0815144 0.53448564 0.05459113 38 8
-1.651212 0.28669754 -0.3869158 4 1
-3.0500245 0.53012049 0.16224147 52 9
-1.9748148 0.34359485 -0.38963199 3 2
-3.0777349 0.53604281 0.27332041 20 10
-1.9362913 0.33758858 -0.31130463 7 3
-1.9359778 0.33788204 -0.24130133 11 4
-1.6525108 0.28900358 -0.14677027 2 5
-1.6525139 0.289599 -0.087924413 53 6
-1.6584184 0.29093167 -0.029389855 56 7
-1.8090569 0.3202875 -0.49227384 17 0
-3.1031628 0.54996395 0.055009987 31 8
-1.659744 0.29445007 -0.38916534 4 1
-3.0442226 0.54006612 0.16203214 37 9
-1.9388092 0.34430718 -0.38276285 11 2
-3.38186 0.60118306 0.300513 41 10
-1.9234321 0.34226903 -0.30942741 7 3
-1.9054122 0.33974862 -0.23764524 8 4
-1.7593684 0.31402478 -0.15635739 3 5
-1.651493 0.29536521 -0.087924413 54 6
-1.6652662 0.29812846 -0.029529471 63 7
-1.7889171 0.3231661 -0.48709747 17 0
-3.1111612 0.56202823 0.05518451 29 8
-1.6702641 0.30203301 -0.39186475 3 1
-3.0265961 0.54784334 0.16119476 33 9
-1.9182777 0.34757221 -0.37894669 8 2
-3.4522758 0.62614006 0.30696252 52 10
-1.8417758 0.33470735 -0.2298456 3 4
-1.8837117 0.34300762 -0.16751333 8 5
-1.6583639 0.30227277 -0.088343106 56 6
-1.6563469 0.30250254 -0.029389855 72 7
-1.7916353 0.32979608 -0.48813272 16 0
-1.6845311 0.31068918 -0.39546397 3 1
-3.0129778 0.5557034 0.16056673 33 9
-1.9074614 0.35214946 -0.3770386 8 2
-1.643291 0.30397275 -0.26468715 1 3
-1.7508111 0.32449365 -0.21863361 3 4
-1.8668922 0.34634504 -0.16611885 8 5
-1.6572987 0.30805975 -0.088343106 53 6
-1.6474708 0.30653042 -0.029250234 65 7
-1.7980679 0.33747354 -0.49020329 16 0
-1.6720001 0.31411478 -0.39276454 4 1
-2.9894288 0.56215644 0.15941535 36 9
-1.9023618 0.35807931 -0.37627536 8 2
-1.6306268 0.30722603 -0.26280993 1 3
-1.8492081 0.34907731 -0.2310643 7 4
-1.8519681 0.35026735 -0.16489866 8 5
-1.6523433 0.31281093 -0.08813376 62 6
-1.6621079 0.31526008 -0.029529471 75 7
-1.796819 0.34406155 -0.49020329 16 0
-1.6803508 0.32236829 -0.39501405 4 1
-2.9500797 0.56596047 0.15742657 42 9
-1.8779001 0.36060667 -0.37169594 7 2
-3.2948735 0.63329941 0.29354054 5 10
-1.7070273 0.32841277 -0.2753247 2 3
-3.3040276 0.63625485 0.41313711 1 11
-1.8420066 0.35504761 -0.23033307 6 4
-1.8467592 0.35629842 -0.16455004 8 5
-1.6393641 0.31687889 -0.087505728 64 6
-1.6609414 0.32135034 -0.029529471 75 7
-1.7975032 0.35070157 -0.49072096 19 0
-3.2855406 0.64102483 0.058430657 1 8
-1.7022239 0.33242092 -0.40041289 4 1
-2.9245641 0.57165635 0.15617052 39 9
-1.8458024 0.36112824 -0.36559007 7 2
-1.8319349 0.35874751 -0.29566118 6 3
-3.2415106 0.63537109 0.40558121 5 11
-1.8154956 0.35618579 -0.22716448 7 4
-1.8279095 0.35928392 -0.16298124 8 5
-1.6422237 0.32308424 -0.087715074 61 6
-1.642152 0.32366553 -0.029215328 57 7
-1.7849611 0.35440308 -0.48761511 21 0
-3.2793605 0.65171015 0.058360845 40 8
-1.7239889 0.34292257 -0.40581173 5 1
-2.9010041 0.57757175 0.15501912 36 9
-1.829191 0.36418045 -0.36253712 8 2
-3.2787626 0.65337598 0.29249465 8 10
-1.8132366 0.36166206 -0.29284537 7 3
-3.2159131 0.6420188 0.40265635 11 11
-1.8045081 0.36057651 -0.22594579 7 4
-1.7934949 0.35870096 -0.16001794 8 5
-1.6469609 0.32999226 -0.088029087 53 6
-1.6351304 0.32821518 -0.029110614 54 7
-1.776139 0.35910028 -0.48554453 18 0
-3.2692256 0.66156691 0.058221228 25 8
-1.7208712 0.34855151 -0.4053618 6 1
-2.9107151 0.59007567 0.15564716 49 9
-1.8067434 0.36627263 -0.35833931 8 2
-1.7867968 0.36287832 -0.28877807 6 3
-3.1825273 0.64691377 0.3987565 12 11
-1.7974027 0.36568552 -0.22521456 7 4
-1.7668518 0.35979101 -0.15775189 7 5
-1.6536268 0.33733574 -0.088447772 48 6
-1.6418116 0.33552283 -0.029250234 55 7
-1.7805514 0.36646596 -0.48709747 12 0
-1.6833807 0.34707963 -0.39681366 9 1
-2.9008133 0.59861708 0.15522847 45 9
-1.7996857 0.37138638 -0.35719445 8 2
-1.7700434 0.36591396 -0.28627509 6 3
-3.1258199 0.64675713 0.39193183 13 11
-1.7766769 0.36793199 -0.22277717 7 4
-1.744125 0.36150825 -0.15583447 7 5
-1.6465726 0.34188786 -0.08813376 39 6
-1.6425881 0.34165901 -0.029285138 52 7
-1.7735888 0.37149134 -0.48554453 8 0
-1.6459221 0.34534997 -0.38826552 16 1
-2.8732958 0.60340369 0.15386772 37 9
-1.7887715 0.37564921 -0.35528636 8 2
-3.1157577 0.65488946 0.27854973 17 10
-1.7513578 0.36843008 -0.28345928 6 3
-3.1157734 0.65602845 0.39095688 31 11
-1.7423604 0.36717284 -0.21863361 7 4
-1.7272565 0.36430436 -0.15443997 7 5
-1.6375527 0.34598196 -0.087715074 33 6
-1.6511675 0.34946057 -0.029459663 49 7
-1.7647234 0.37606952 -0.48347399 8 0
-1.6408949 0.35027999 -0.38736573 18 1
-2.8457808 0.60800487 0.15250699 29 9
-1.7548107 0.37491766 -0.34879887 6 2
-3.1173494 0.66659409 0.27889836 47 10
-1.7288131 0.36999425 -0.28001773 6 3
-3.1251111 0.66939527 0.39241934 15 11
-1.7138941 0.36742663 -0.21522127 7 4
-1.714286 0.36782396 -0.1533941 10 5
-1.6519563 0.3550531 -0.088552445 25 6
-1.6460278 0.3543804 -0.029389855 45 7
-1.738856 0.37690684 -0.47674471 8 0
-3.1306906 0.67916685 0.055917513 2 8
-1.6472797 0.35765961 -0.38916534 32 1
-2.8338826 0.61581367 0.15198363 34 9
-1.732388 0.37645462 -0.34460106 6 2
-1.71593 0.37350592 -0.27814052 6 3
-3.1111178 0.67776388 0.39095688 3 11
-1.6951455 0.36960149 -0.21302763 11 4
-1.6954724 0.36998275 -0.15182531 19 5
-1.6624141 0.36337677 -0.089180477 21 6
-1.6408738 0.35926819 -0.029320043 44 7
-1.7186642 0.37881607 -0.47156835 8 0
-1.7067007 0.37649196 0.030506806 1 8
-1.6441183 0.36298701 -0.38871542 36 1
-2.8337753 0.62563843 0.1520883 37 9
-1.7099762 0.37784004 -0.34040326 7 2
-1.6991862 0.37607795 -0.27563757 14 3
-1.6900344 0.37436181 -0.21254015 20 4
-1.6863903 0.37417215 -0.15112805 26 5
-1.6786827 0.37307727 -0.090122528 8 6
-1.6650493 0.3703523 -0.029773805 47 7
-1.7079724 0.38240296 -0.4689801 8 0
-1.674222 0.37515333 0.02994833 1 8
-1.6352994 0.36673144 -0.3869158 45 1
-2.8277874 0.63415819 0.15187897 34 9
-1.6972203 0.38092887 -0.33811355 15 2
-1.6844387 0.37867779 -0.27344745 17 3
-2.9650545 0.66711593 0.37316394 1 11
-1.6907203 0.38039991 -0.21278389 31 4
-1.6793091 0.37844837 -0.15060511 33 5
-1.667695 0.37644315 -0.08959917 8 6
-1.6872185 0.38115957 -0.030192664 52 7
-1.69916 0.3863515 -0.46690959 11 0
-1.7431633 0.39667684 0.031204903 1 8
-1.6321743 0.37171963 -0.38646591 49 1
-2.8021886 0.638699 0.15062289 38 9
-1.6978619 0.38699132 -0.33849517 24 2
-2.9409323 0.67086256 0.26390758 7 10
-1.6773963 0.38294259 -0.27250886 25 3
-2.9396036 0.67163903 0.37023908 40 11
-1.6719657 0.38231689 -0.21059024 33 4
-1.6799872 0.38445964 -0.15077944 37 5
-1.662544 0.38107857 -0.089389823 8 6
-1.7034186 0.39107347 -0.030506806 54 7
-1.6921542 0.39097562 -0.46535668 18 0
-1.7028023 0.39374852 0.030506806 1 8
-1.6270697 0.37653604 -0.38556612 43 1
-2.7863216 0.64532214 0.14989018 41 9
-1.6869375 0.39070082 -0.33658707 31 2
-1.6779736 0.38924187 -0.27282172 29 3
-2.9546442 0.68593639 0.37243277 53 11
-1.660953 0.38590503 -0.20937155 37 4
-1.6805755 0.39077282 -0.15095374 35 5
-1.6631488 0.38733307 -0.089494489 9 6
-1.7020431 0.39701715 -0.030506806 39 7
-1.677614 0.39378932 -0.46173319 30 0
-1.7987524 0.42255604 0.032252047 1 8
-1.6352304 0.38444325 -0.38781562 27 1
-2.7762756 0.65321398 0.14947151 38 9
-1.6740971 0.39388871 -0.33429739 37 2
-2.9226015 0.68818122 0.26268741 20 10
-1.6804501 0.39600298 -0.27344745 31 3
-1.6673241 0.39352411 -0.21034651 34 4
-1.6772623 0.39617878 -0.15077944 34 5
-1.675392 0.3963545 -0.090227202 11 6
-1.6967553 0.40203434 -0.030436996 36 7
-1.6649541 0.39695475 -0.45862737 34 0
-1.7350235 0.41398102 0.031135093 2 8
-1.6414605 0.39195904 -0.38961524 7 1
-2.7662082 0.6610449 0.14905281 29 9
-1.6746213 0.40018678 -0.33467901 38 2
-2.7128429 0.64879262 0.24403608 10 10
-1.6713731 0.40002689 -0.27219599 29 3
-1.6736617 0.40119275 -0.21132146 31 4
-1.6700568 0.4006364 -0.1502565 33 5
-1.6798244 0.4036001 -0.090541214 13 6
-1.689509 0.40655082 -0.030332282 27 7
-1.6598032 0.40185541 -0.4575921 34 0
-1.7277377 0.41862187 0.031030379 8 8
-1.6419761 0.39814565 -0.39006513 4 1
-2.7794111 0.67446476 0.14989018 34 9
-1.6846615 0.40880775 -0.33696869 38 2
-2.7221782 0.66107875 0.24508193 39 10
-1.6622885 0.40399265 -0.27094454 28 3
-1.6703224 0.40656266 -0.21107772 32 4
-1.6725197 0.40740708 -0.15060511 33 5
-1.6784052 0.40946138 -0.090541214 26 6
-1.70362 0.41624281 -0.030611521 24 7
-1.6715223 0.41087434 -0.46121556 33 0
-1.7398584 0.42799398 0.031274714 8 8
-1.638684 0.40340942 -0.38961524 6 1
-2.7673435 0.68177319 0.14936683 22 9
-1.6870369 0.41562474 -0.33773196 35 2
-2.7256575 0.67200774 0.24560487 22 10
-1.6647038 0.41073948 -0.27157027 29 3
-2.7925293 0.68952972 0.3531774 2 11
-1.6669661 0.41191456 -0.21083398 31 4
-1.6749556 0.41419941 -0.15095374 33 5
-1.6614562 0.41147617 -0.089703836 35 6
-1.7002158 0.42170569 -0.030576617 17 7
-1.6644548 0.41530356 -0.45966265 31 0
-1.755815 0.43842468 0.031588856 9 8
-1.646719 0.41148886 -0.39186475 5 1
-1.6741482 0.41865343 -0.33544225 35 2
-2.6923704 0.67377967 0.24281588 19 10
-1.6824219 0.42134687 -0.27469894 27 3
-1.661667 0.41676542 -0.21034651 30 4
-1.6870266 0.42343888 -0.15217392 33 5
-1.6561357 0.41629982 -0.089494489 36 6
-1.6851591 0.42422041 -0.030332282 6 7
-1.6648676 0.42158532 -0.46018028 32 0
-1.7581508 0.44553342 0.031658668 9 8
-1.6547172 0.41962966 -0.39411426 14 1
-2.7586446 0.70009369 0.14915749 16 9
-1.6707736 0.42401183 -0.3350606 35 2
-2.6687601 0.67777902 0.24089848 18 10
-1.6828556 0.42770329 -0.27501184 27 3
-2.779952 0.7070505 0.35220242 56 11
-1.6717445 0.42550108 -0.21180893 31 4
-1.6797462 0.42784941 -0.151651 32 5
-1.6720901 0.42652127 -0.090436541 37 6
-1.6468558 0.42069677 -0.029669091 8 7
-1.6521595 0.42450929 -0.45707443 31 0
-1.7527115 0.45067188 0.031588856 10 8
-1.6626787 0.42783129 -0.39636377 21 1
-2.7582424 0.70973569 0.14926216 52 9
-1.6730857 0.43082091 -0.33582386 35 2
-2.6432259 0.68112403 0.23880674 38 10
-1.66605 0.42962894 -0.27250886 25 3
-1.6721714 0.43182996 -0.21205269 33 4
-1.6782426 0.43371025 -0.151651 33 5
-1.6647904 0.43085378 -0.090122528 36 6
-1.6415802 0.42515257 -0.029599281 28 7
-1.6693615 0.43514717 -0.46225086 31 0
-1.7628176 0.45950806 0.031798285 11 8
-1.6612508 0.43334264 -0.39636377 17 1
-1.6810694 0.43913913 -0.33773196 32 2
-2.6427596 0.69085044 0.23898104 39 10
-1.6283041 0.42565906 -0.26656437 19 3
-1.6803319 0.43988642 -0.21327138 30 4
-1.6786455 0.44007149 -0.15182531 33 5
-1.655625 0.43434489 -0.089703836 35 6
-1.6729652 0.43951857 -0.030192664 52 7
-1.6753801 0.44265458 -0.46432137 32 0
-1.7747357 0.46923676 0.032042619 12 8
-1.6766834 0.44362462 -0.40041289 8 1
-1.6625232 0.44018891 -0.33429739 7 2
-2.64238 0.70012069 0.23915535 38 10
-1.5217915 0.40349561 -0.24935657 18 3
-1.6711118 0.44371152 -0.21229641 31 4
-1.6887305 0.44870514 -0.15287116 33 5
-1.6463783 0.43806723 -0.08928515 34 6
-1.6540303 0.44072151 -0.029878521 45 7
-1.6812888 0.45050004 -0.46639192 31 0
-1.7866074 0.47905383 0.032286953 13 8
-1.6600672 0.44543442 -0.39681366 8 1
-1.3386408 0.35943905 -0.26942232 4 2
-2.6341476 0.70778912 0.23863243 38 10
-1.4307156 0.38469753 -0.23465173 13 3
-1.6695527 0.44954216 -0.21229641 31 4
-2.6226087 0.70665193 0.43019485 2 12
-1.694849 0.45667061 -0.15356842 33 5
-1.6564088 0.4469333 -0.089913182 32 6
-1.6505512 0.44597092 -0.029843615 37 7
-1.6629276 0.45180756 -0.46173319 31 0
-1.8215874 0.49525538 0.032950144 21 8
-1.6585022 0.45122689 -0.39681366 8 1
-1.3108578 0.35688934 -0.26407966 11 2
-2.6182051 0.71331316 0.23741224 34 10
-1.4083998 0.38397387 -0.23121016 20 3
-2.6102824 0.71213412 0.33221585 10 11
-1.6698885 0.4558897 -0.21254015 20 4
-2.5705822 0.70226729 0.42206025 10 12
-1.6817129 0.45943365 -0.15252255 31 5
-1.6625445 0.45482066 -0.090331867 27 6
-1.6586276 0.45437142 -0.030018138 34 7
-1.6632031 0.45812222 -0.46225086 27 0
-1.8198476 0.50161099 0.032950144 58 8
-1.3939143 0.38447163 -0.33382738 5 1
-2.5914142 0.71525389 0.14088841 3 9
-1.3114965 0.36198497 -0.26446128 18 2
-2.584971 0.71396172 0.23462325 49 10
-1.407051 0.38888782 -0.23121016 26 3
-2.566211 0.71070874 0.42174736 16 12
-1.6704983 0.46264228 -0.151651 9 5
-1.6686453 0.46275625 -0.09075056 27 6
-1.6820797 0.46711385 -0.0304719 25 7
-1.650349 0.46109647 -0.45914501 14 0
-1.3230588 0.37015131 -0.31718099 12 1
-1.3025986 0.36467266 -0.2629348 24 2
-2.5900111 0.72558063 0.23532049 60 10
-1.4075183 0.39457521 -0.23152302 30 3
-2.5860064 0.72543293 0.32977846 21 11
-1.6493825 0.46299896 -0.21034651 3 4
-2.5446961 0.71432287 0.41861868 22 12
-1.6611701 0.46724626 -0.090436541 12 6
-1.699688 0.47840095 -0.030820949 20 7
-1.3717729 0.38843104 -0.38201693 7 0
-1.8086051 0.51212442 0.032810524 100 8
-1.2993249 0.36816162 -0.31178215 19 1
-2.5786712 0.73114926 0.14046971 45 9
-1.2975405 0.36814535 -0.26217157 31 2
-2.591296 0.73570544 0.23566914 15 10
-1.4138031 0.40139863 -0.23277451 33 3
-1.6554757 0.47063735 -0.21132146 5 4
-2.5098872 0.71401256 0.41329992 20 12
-1.6345686 0.46531075 -0.14868769 3 5
-1.642324 0.46782795 -0.089494489 4 6
-1.6903156 0.48213711 -0.030681333 18 7
-1.3184806 0.37806818 -0.36752307 11 0
-1.7971958 0.51567692 0.032636002 100 8
-1.2961588 0.37215713 -0.31133226 25 1
-1.2868779 0.36973548 -0.26026347 32 2
-2.5926716 0.74539554 0.23601775 6 10
-1.4313772 0.41179314 -0.23590319 36 3
-1.6709906 0.48135871 -0.2135151 16 4
-2.4959908 0.71948725 0.4114227 17 12
-1.6981074 0.48949161 -0.15461428 8 5
-1.6560322 0.47798884 -0.090331867 3 6
-1.6674906 0.48192668 -0.030297378 29 7
-1.3004566 0.37781754 -0.36286432 18 0
-1.7992252 0.52306366 0.03270581 17 8
-1.2911094 0.37559065 -0.31043246 29 1
-1.2799244 0.37257916 -0.25911862 39 2
-1.429931 0.41678676 -0.23590319 38 3
-1.6921673 0.49386248 -0.21643998 28 4
-2.4763989 0.72321123 0.40860689 11 12
-1.686826 0.49262312 -0.15374273 20 5
-1.6735233 0.48937264 -0.091378585 3 6
-1.6657982 0.48774445 -0.030297378 35 7
-1.2954235 0.38126385 -0.36182904 26 0
-1.8184892 0.53555489 0.033089764 8 8
-1.2841827 0.37844265 -0.30908275 30 1
-2.2049744 0.65021384 0.12047738 1 9
-1.2729669 0.37537882 -0.25797379 41 2
-1.4284674 0.42177564 -0.23590319 38 3
-1.690433 0.49976629 -0.21643998 32 4
-2.4662824 0.72960955 0.4073554 7 12
-1.6908278 0.50020391 -0.15426566 32 5
-1.6775501 0.49691278 -0.091692604 7 6
-1.6679199 0.49469349 -0.030367188 46 7
-2.1816678 0.6474824 0.60977769 1 15
-1.2829767 0.38247168 -0.35872319 30 0
-1.9756575 0.58934456 0.035986863 20 8
-1.2641807 0.37734917 -0.30458373 33 1
-2.1529343 0.64304465 0.1177559 15 9
-1.2772921 0.38150531 -0.25911862 43 2
-2.1494823 0.64242274 0.19627473 1 10
-1.4232014 0.42562744 -0.23527746 39 3
-2.4114368 0.72163028 0.30906066 3 11
-1.6962848 0.50794178 -0.21741492 32 4
-1.69098 0.50667489 -0.15443997 32 5
-1.6585881 0.49760011 -0.09075056 23 6
-1.6604372 0.49878713 -0.030262474 47 7
-2.1627438 0.65008849 0.60511893 14 15
-1.2760856 0.38527301 -0.35717031 34 0
-2.0348442 0.61474329 0.037103817 22 8
-1.2572596 0.38006771 -0.30323401 35 1
-2.1353829 0.64593035 0.11691854 33 9
-1.2721943 0.38482508 -0.25835541 46 2
-2.137692 0.64703602 0.19540317 12 10
-1.4330504 0.43402797 -0.23715468 44 3
-1.685003 0.51097947 -0.21619622 32 4
-2.419543 0.73419023 0.40047228 62 12
-1.7006404 0.51604521 -0.15548584 32 5
-1.6511079 0.50164485 -0.090436541 32 6
-1.656773 0.5039978 -0.030227568 46 7
-2.1530688 0.65538371 0.60304838 34 15
-1.2728853 0.38916022 -0.35665265 37 0
-2.0441592 0.62535191 0.037313245 28 8
-1.2577887 0.38502449 -0.30368391 37 1
-2.1082895 0.64577615 0.1155578 37 9
