# .PCD v0.7 - Point Cloud Data file format
VERSION 0.7
FIELDS x y z intensity ring
SIZE 4 4 4 4 2
TYPE F F F F U
COUNT 1 1 1 1 1
WIDTH 1268
HEIGHT 1
VIEWPOINT 0 0 0 1 0 0 0
POINTS 1268
DATA ascii
-31.618362 -44.639698 4.7858958 50 10
-1.769034 -2.4966483 -0.48463401 3 3
-34.951023 -49.326591 7.4228187 20 11
-2.2029138 -3.1078355 -0.46773461 2 4
-31.593214 -44.554718 8.6508274 48 12
-2.9383237 -4.1422749 -0.44431996 1 5
-4.4013557 -6.2001834 -0.39848602 4 6
-14.488677 -20.402634 5.7771931 18 14
-8.3200703 -11.716139 -0.250826 2 7
-14.036598 -19.758709 6.4942875 16 15
-1.095809 -1.5391067 -0.50625008 4 0
-14.276097 -20.043932 0.42953864 32 8
-1.2597202 -1.7680207 -0.50119096 3 1
-31.845665 -44.678955 2.8754423 33 9
-1.4654094 -2.0559456 -0.49076074 100 2
-31.772329 -44.559608 4.7879877 50 10
-1.7665451 -2.4766049 -0.4818182 3 3
-34.920696 -48.938942 7.3818703 19 11
-2.2178211 -3.106976 -0.46870953 2 4
-31.759155 -44.475418 8.6558323 48 12
-2.9466918 -4.1265373 -0.44362271 1 5
-4.4208126 -6.1863251 -0.39848602 3 6
-14.442774 -20.203239 5.7335525 7 14
-8.3391027 -11.660832 -0.25023261 2 7
-14.118899 -19.735624 6.5020523 6 15
-1.1000485 -1.5337027 -0.50573242 5 0
-14.36812 -20.024851 0.43020183 28 8
-1.2658846 -1.7636125 -0.50119096 3 1
-36.854473 -51.326221 3.3115056 24 9
-1.4771575 -2.0571971 -0.49228725 100 2
-31.946266 -44.474331 4.7907767 50 10
-1.7740265 -2.4688191 -0.48150533 3 3
-32.05098 -44.587234 6.7423 16 11
-2.228653 -3.0992155 -0.46870953 2 4
-31.941895 -44.402775 8.6633415 48 12
-2.9610779 -4.1162267 -0.44362271 1 5
-31.951967 -44.400425 10.633022 60 13
-4.4295444 -6.1530261 -0.39733464 2 6
-31.932703 -44.341 12.615255 37 14
-8.3470268 -11.586222 -0.24925527 2 7
-31.927702 -44.301441 14.632077 33 15
-1.1087897 -1.534551 -0.50728536 4 0
-14.44731 -19.987534 0.43048105 28 8
-1.2674651 -1.7528665 -0.49939132 3 1
-37.122375 -51.320248 3.3194606 24 9
-1.4866308 -2.0552096 -0.49305046 100 2
-32.129356 -44.401276 4.79496 51 10
-1.7814747 -2.4610116 -0.48119247 3 3
-32.115612 -44.349674 6.7232885 32 11
-2.2278121 -3.0753407 -0.46627215 2 4
-32.117561 -44.319801 8.6689739 48 12
-2.9667895 -4.0924411 -0.44222823 2 5
-32.092934 -44.269547 10.628444 40 13
-4.4416156 -6.1245914 -0.39649725 2 6
-32.110176 -44.260815 12.624253 37 14
-8.3451376 -11.498754 -0.2479987 2 7
-32.104847 -44.220989 14.642429 33 15
-1.1212298 -1.5398471 -0.51039118 5 0
-14.536998 -19.964468 0.43107444 28 8
-1.2781661 -1.754732 -0.50119096 3 1
-37.371853 -51.287212 3.3257408 24 9
-1.4918401 -2.0465744 -0.49228725 100 2
-25.689821 -35.22953 3.8146324 29 10
-1.7986325 -2.4656365 -0.48338255 3 3
-32.293621 -44.269371 6.7281632 32 11
-2.2315116 -3.0579247 -0.46480972 2 4
-32.29071 -44.232944 8.6739788 48 12
-2.9904571 -4.0949321 -0.44362271 1 5
-32.26886 -44.17065 10.633022 40 13
-4.4569626 -6.0985956 -0.3958692 2 6
-32.285984 -44.161701 12.629652 37 14
-8.3415585 -11.409824 -0.24670722 2 7
-32.286381 -44.146076 14.654852 34 15
-1.1151721 -1.5203466 -0.50521481 5 0
-14.63965 -19.951359 0.43194708 28 8
-1.2868947 -1.7531776 -0.50209075 3 1
-32.591644 -44.400635 2.8865376 17 9
-1.4943273 -2.0350242 -0.49076074 100 2
-25.793758 -35.113956 3.8118436 14 10
-1.8072278 -2.4593434 -0.48338255 3 3
-32.490932 -44.198692 6.7354755 32 11
-2.2497609 -3.0593207 -0.46627215 2 4
-32.45895 -44.139061 8.6777334 49 12
-2.9976482 -4.0748391 -0.44257683 2 5
-32.460094 -44.108337 10.645234 40 13
-4.4758554 -6.0797844 -0.39565986 2 6
-32.46999 -44.089531 12.64135 37 14
-8.3588047 -11.350043 -0.24604402 3 7
-32.458622 -44.057987 14.663135 34 15
-1.1181762 -1.5133371 -0.50417954 5 0
-14.695035 -19.888226 0.43163291 12 8
-1.2927014 -1.7489004 -0.50209075 3 1
-32.791561 -44.347626 2.8905151 17 9
-1.5014215 -2.0297959 -0.49076074 100 2
-26.034681 -35.183861 3.8292744 14 10
-1.8059734 -2.4406333 -0.4808796 3 3
-32.653847 -44.113049 6.7388878 32 11
-2.2646191 -3.0582247 -0.4672471 2 4
-32.638695 -44.060406 8.684617 49 12
-3.0047374 -4.0547457 -0.441531 2 5
-32.622551 -44.022533 10.650577 40 13
-4.4888544 -6.0552821 -0.39503184 2 6
-32.641556 -44.016048 12.651247 18 14
-8.3805017 -11.296706 -0.24552046 3 7
-32.593784 -43.919605 14.654852 17 15
-1.1278012 -1.5158204 -0.50625008 5 0
-32.846722 -44.131527 0.96026635 21 8
-1.2929795 -1.7365621 -0.49984124 3 1
-32.979568 -44.27774 2.893446 17 9
-1.5175261 -2.0374017 -0.49381369 100 2
-24.958412 -33.496487 3.6546147 13 10
-1.8133013 -2.4327307 -0.48056671 3 3
-26.903023 -36.080036 5.5260439 10 11
-2.2705331 -3.0439363 -0.46627215 2 4
-32.825378 -43.990543 8.6933775 49 12
-3.0093374 -4.0314603 -0.44013649 2 5
-32.806549 -43.949303 10.6605 40 13
-4.5004053 -6.0267725 -0.39419448 2 6
-14.055663 -18.815971 5.4222202 6 14
-8.4079103 -11.251367 -0.2451714 3 7
-32.786228 -43.858162 14.672452 34 15
-1.1356671 -1.5147679 -0.50728536 5 0
-33.074944 -44.115799 0.96243042 21 8
-1.2943562 -1.7258021 -0.4980416 2 1
-33.087181 -44.100044 2.8893638 68 9
-1.5155554 -2.0192645 -0.49076074 100 2
-25.143223 -33.487633 3.6636789 26 10
-1.8210192 -2.424489 -0.48025388 3 3
-26.997803 -35.944637 5.5197067 21 11
-2.2692199 -3.0201216 -0.46383476 2 4
-33.000095 -43.904114 8.6990089 49 12
-3.0377605 -4.0400405 -0.44222823 2 5
-32.981571 -43.847595 10.665078 40 13
-4.4888387 -5.9655523 -0.39126363 2 6
-14.095234 -18.725403 5.4109726 16 14
-8.432704 -11.202778 -0.24475256 3 7
-11.869471 -15.762768 5.2871556 10 15
-1.1432763 -1.5138777 -0.50832063 5 0
-1.3041979 -1.7257105 -0.49939132 3 1
-33.184319 -43.909386 2.8844442 33 9
-1.5178591 -2.0076978 -0.4892343 100 2
-25.44264 -33.641201 3.6901739 27 10
-1.8366225 -2.4275696 -0.48213109 3 3
-27.124573 -35.839111 5.5187316 21 11
-2.2778778 -3.0086191 -0.46334729 2 4
-33.167458 -43.807552 8.7027636 49 12
-3.0398149 -4.0135293 -0.44048512 2 5
-33.155769 -43.760368 10.671948 40 13
-4.4951582 -5.9307466 -0.39000759 2 6
-33.162468 -43.73748 12.671944 18 14
-8.4403448 -11.131844 -0.24384503 3 7
-11.902239 -15.691997 5.2773209 14 15
-1.1391965 -1.4975775 -0.50417954 5 0
-1.3169942 -1.7306809 -0.50209075 3 1
-33.371262 -43.837776 2.8873749 34 9
-1.5201002 -1.9961394 -0.48770785 100 2
-25.456081 -33.415886 3.6751833 27 10
-1.8374801 -2.4120374 -0.48025388 3 3
-27.086855 -35.543713 5.4870458 10 11
-2.2878423 -3.0010486 -0.46334729 2 4
-33.344131 -43.722923 8.7090206 49 12
-3.0417216 -3.9870534 -0.43874201 2 5
-33.329285 -43.687641 10.681107 40 13
-4.5172243 -5.918983 -0.39021692 2 6
-14.001233 -18.339375 5.3268409 6 14
-8.4621582 -11.080063 -0.24335635 3 7
-12.008547 -15.717897 5.3000965 14 15
-1.1441565 -1.4937916 -0.50417954 5 0
-1.3230269 -1.7260735 -0.50209075 3 1
-33.543175 -43.761757 2.8896778 34 9
-1.5314895 -1.9973199 -0.4892343 100 2
-33.577282 -43.774578 4.826685 25 10
-1.8446859 -2.4040413 -0.47994098 3 3
-26.765951 -34.869461 5.3973498 20 11
-2.3031399 -2.999342 -0.46432224 2 4
-33.520222 -43.65284 8.7171555 49 12
-3.0646365 -3.9895849 -0.44013649 2 5
-33.495934 -43.58971 10.685686 40 13
-4.5256853 -5.8873439 -0.3891702 2 6
-14.036654 -18.253315 5.3160434 21 14
-8.4769125 -11.023408 -0.24272807 3 7
-12.340944 -16.042414 5.4232945 16 15
-1.154084 -1.4959068 -0.50625008 5 0
-1.3215998 -1.7124202 -0.49939132 3 1
-33.715256 -43.669697 2.8913524 34 9
-1.5504529 -2.0074992 -0.49305046 100 2
-1.8466089 -2.3900955 -0.47837666 3 3
-2.3155022 -2.9948287 -0.46480972 2 4
-33.689304 -43.557453 8.7215357 49 12
-3.0712285 -3.9694078 -0.43909061 2 5
-33.669136 -43.515659 10.694845 40 13
-4.5402942 -5.8659859 -0.38875154 2 6
-33.684643 -43.504318 12.702536 18 14
-8.5128918 -10.990588 -0.24265826 3 7
-12.530576 -16.171799 5.4817872 18 15
-1.1602234 -1.493597 -0.50676769 6 0
-1.3251772 -1.7047194 -0.49849153 3 1
-33.877296 -43.56435 2.8921897 34 9
-1.5498699 -1.9930481 -0.49076074 100 2
-33.884247 -43.557602 4.8280797 26 10
-1.8573675 -2.3867524 -0.47900239 4 3
-26.829515 -34.464043 5.3627391 20 11
-2.3137443 -2.9710665 -0.46237233 2 4
-33.867863 -43.473862 8.7284184 49 12
-3.0941708 -3.9717758 -0.44048512 2 5
-33.847378 -43.431934 10.70324 40 13
-4.5558295 -5.843802 -0.38833284 2 6
-13.246178 -16.984863 4.9727678 19 14
-8.5364447 -10.941887 -0.24223942 3 7
-12.598833 -16.143192 5.4869637 12 15
-1.1642396 -1.4880166 -0.50625008 5 0
-31.644705 -40.430588 0.89618105 19 8
-1.3311198 -1.7000833 -0.49849153 3 1
-34.043941 -43.464703 2.893446 34 9
-1.547133 -1.9752612 -0.48770785 100 2
-25.75379 -32.868637 3.6532199 13 10
-1.8729986 -2.3895831 -0.4808796 4 3
-27.135839 -34.607624 5.3997874 10 11
-2.314301 -2.9504759 -0.4604224 2 4
-34.041351 -43.383362 8.7340508 49 12
-3.1030951 -3.9546814 -0.43978783 2 5
-34.010891 -43.328968 10.707056 40 13
-4.5663342 -5.8152952 -0.38749546 3 6
-13.316215 -16.952318 4.9768171 20 14
-8.5597601 -10.893153 -0.24182054 3 7
-12.326794 -15.681448 5.3446136 7 15
-1.167035 -1.4809091 -0.50521481 5 0
-1.3442866 -1.7046074 -0.50119096 3 1
-34.232574 -43.392635 2.8965862 34 9
-1.5467231 -1.9606003 -0.48541811 100 2
-25.651125 -32.503284 3.6225414 26 10
-1.8801044 -2.38148 -0.48056671 4 3
-26.971052 -34.151264 5.3432398 10 11
-2.3295076 -2.9486105 -0.46139738 2 4
-34.231773 -43.313858 8.7440624 50 12
-3.1126273 -3.9370286 -0.43909061 2 5
-34.200905 -43.259254 10.719268 41 13
-4.5940375 -5.8087206 -0.38812348 2 6
-34.210903 -43.240894 12.72953 18 14
-8.5679483 -10.825576 -0.24098283 3 7
-12.404238 -15.667104 5.3544488 19 15
-1.1652474 -1.4675438 -0.50210893 5 0
-1.3538643 -1.7044828 -0.50254071 3 1
-34.426071 -43.32605 2.9001448 34 9
-1.5563415 -1.9579921 -0.48618135 100 2
-25.725441 -32.352901 3.6162658 26 10
-1.8777533 -2.3606596 -0.47775093 5 3
-26.553776 -33.382675 5.2374573 9 11
-2.3447299 -2.9466743 -0.46237233 2 4
-34.402454 -43.218822 8.7490673 50 12
-3.1189036 -3.9167888 -0.43804473 2 5
-34.386127 -43.167404 10.727664 41 13
-4.6115646 -5.7871566 -0.38780949 3 6
-34.410461 -43.167023 12.744826 19 14
-8.588232 -10.773712 -0.24049416 3 7
-12.438375 -15.598033 5.3456488 17 15
-1.172776 -1.4664853 -0.50314426 5 0
-13.135392 -16.419127 0.36702409 3 8
-1.352797 -1.6903797 -0.49984124 3 1
-34.59457 -43.227444 2.9016104 34 9
-1.5754366 -1.9678737 -0.48999751 100 2
-25.818291 -32.238026 3.613477 26 10
-1.8896874 -2.3587155 -0.47868952 4 3
-27.172523 -33.904724 5.3349528 10 11
-2.3530309 -2.934963 -0.46188486 3 4
-34.58028 -43.132389 8.7559509 50 12
-3.1400359 -3.9152033 -0.43909061 2 5
-34.558716 -43.074677 10.734533 41 13
-4.6142344 -5.7492175 -0.38634408 3 6
-34.597534 -43.092232 12.758325 19 14
-8.6157703 -10.731193 -0.24021493 3 7
-12.579851 -15.662961 5.3829184 16 15
-1.1827351 -1.4684005 -0.50521481 5 0
-13.132063 -16.303843 0.36541849 3 8
-1.3522817 -1.6782972 -0.49759173 3 1
-28.250179 -35.048363 2.3592005 11 9
-1.5822958 -1.9623628 -0.48999751 100 2
-25.963188 -32.188026 3.6180091 26 10
-1.8950186 -2.3493612 -0.47806379 4 3
-26.778702 -33.18721 5.2359948 19 11
-2.3527763 -2.9147868 -0.45993495 3 4
-34.77034 -43.060593 8.7659626 50 12
-3.1536834 -3.9042187 -0.43909061 1 5
-34.740845 -43.008709 10.746745 41 13
-4.6357846 -5.7369919 -0.38655341 3 6
-14.053885 -17.386106 5.1612768 27 14
-8.6355753 -10.679284 -0.23972626 3 7
-12.65024 -15.638483 5.389648 16 15
-1.1973325 -1.4764742 -0.5093559 6 0
-13.209055 -16.282749 0.36597696 6 8
-1.3593599 -1.6750796 -0.4980416 3 1
-28.213732 -34.754169 2.3460119 22 9
-1.5838449 -1.951008 -0.48847106 100 2
-26.220509 -32.287346 3.6389265 13 10
-1.9144177 -2.3565304 -0.4808796 5 3
-27.08217 -33.324619 5.2725558 19 11
-2.3604321 -2.9034755 -0.45944747 3 4
-34.94038 -42.963482 8.7709684 50 12
-3.1615849 -3.8875561 -0.43839338 1 5
-13.836864 -17.008064 4.26191 18 13
-4.6469574 -5.7099309 -0.38582069 2 6
-12.951817 -15.908822 4.7361193 7 14
-8.632391 -10.599458 -0.23860931 4 7
-12.725494 -15.619691 5.398448 11 15
-1.1890367 -1.4558272 -0.50366187 6 0
-13.225325 -16.186987 0.36486 5 8
-1.3713646 -1.6778692 -0.50029117 3 1
-28.577612 -34.952339 2.3661089 11 9
-1.5844326 -1.9378675 -0.48656297 100 2
-1.9126242 -2.3376033 -0.47837666 5 3
-2.3718102 -2.896754 -0.4596912 3 4
-35.125179 -42.884056 8.7797289 50 12
-3.1650355 -3.8641667 -0.4369989 1 5
-13.825229 -16.873095 4.2401576 24 13
-4.6693931 -5.6967649 -0.38603005 2 6
-13.604065 -16.591368 4.9534221 2 14
-8.6541195 -10.550708 -0.23819044 4 7
-12.378002 -15.085324 5.2286625 6 15
-1.1928844 -1.4501755 -0.50314426 5 0
-13.119106 -15.943078 0.36039221 5 8
-1.3759747 -1.6715674 -0.49984124 3 1
-35.468983 -43.073242 2.9242196 34 9
-1.5861953 -1.9262625 -0.48503649 100 2
-25.928423 -31.476082 3.5678074 25 10
-1.9195162 -2.3293884 -0.47806379 4 3
-27.710648 -33.6157 5.3490896 10 11
-2.3932734 -2.9022415 -0.46188486 4 4
-35.302326 -42.794697 8.7866125 50 12
-3.1658273 -3.8377252 -0.4352558 2 5
-4.6816196 -5.6711903 -0.38540202 2 6
-35.357151 -42.815472 12.81951 19 14
-8.6947165 -10.525059 -0.23829515 5 7
-12.40966 -15.016711 5.2198629 11 15
-1.1967064 -1.4445153 -0.5026266 4 0
-13.11343 -15.823282 0.35871676 5 8
-1.3768264 -1.6607528 -0.4980416 3 1
-35.72366 -43.075237 2.9328027 34 9
-1.605442 -1.9358262 -0.48885265 4 2
-26.086481 -31.443651 3.5744312 25 10
-1.9251131 -2.3196332 -0.47743803 5 3
-27.627464 -33.277451 5.3105788 10 11
-2.3995848 -2.8892882 -0.46115363 3 4
-35.514606 -42.747173 8.8022556 50 12
-3.1842971 -3.8327806 -0.43595302 1 5
-12.789474 -15.388599 3.8894508 13 13
-4.6988335 -5.651742 -0.38519266 2 6
-35.518852 -42.706772 12.82401 19 14
-8.7173328 -10.477736 -0.23791121 6 7
-12.470658 -14.983694 5.2234864 4 15
-1.2029791 -1.4418126 -0.50314426 4 0
-13.107079 -15.703721 0.35704133 5 8
-1.3788681 -1.6514494 -0.49669194 4 1
-35.973671 -43.069843 2.9409671 35 9
-1.6147068 -1.933224 -0.48961592 4 2
-26.208855 -31.367689 3.5761743 12 10
-1.9344647 -2.3144152 -0.47775093 4 3
-26.284214 -31.435575 5.0312543 18 11
-2.4109299 -2.8824167 -0.46139738 3 4
-35.701626 -42.668407 8.8116417 51 12
-3.215555 -3.8430352 -0.43839338 1 5
-12.868317 -15.373972 3.8970833 14 13
-4.7134061 -5.6291785 -0.38477397 2 6
-13.70824 -16.365833 4.9286776 11 14
-8.7410097 -10.431916 -0.23756215 6 7
-12.51792 -14.934149 5.221416 13 15
-1.2142186 -1.4449996 -0.50573242 4 0
-13.094907 -15.578274 0.35522628 5 8
-1.3908952 -1.6540837 -0.49894145 3 1
-36.216366 -43.054054 2.9485033 17 9
-1.6062796 -1.909547 -0.48503649 100 2
-26.484959 -31.474197 3.598835 12 10
-1.9476203 -2.3136933 -0.47900239 3 3
-26.432142 -31.389183 5.0385666 18 11
-2.4158607 -2.8679111 -0.4604224 2 4
-12.906077 -15.315609 3.1721785 10 12
-3.2161117 -3.8165517 -0.43665028 1 5
-12.875083 -15.273418 3.8829632 14 13
-4.7278752 -5.606585 -0.38435531 2 6
-13.723819 -16.268728 4.9138312 19 14
-8.7502909 -10.369245 -0.23682916 5 7
-12.877775 -15.254981 5.3492723 19 15
-1.2080234 -1.4274806 -0.50107372 4 0
-13.084604 -15.456158 0.35348105 5 8
-1.4004388 -1.6536798 -0.50029117 3 1
-36.464546 -43.04319 2.9564583 35 9
-1.6142044 -1.9054264 -0.48541811 100 2
-1.9480206 -2.2978401 -0.4771252 3 3
-26.482492 -31.227087 5.0273547 18 11
-2.4232883 -2.8564332 -0.45993495 1 4
-12.924949 -15.229798 3.1637311 14 12
-3.2191012 -3.7931497 -0.4352558 1 5
-12.911803 -15.208927 3.8780024 13 13
-4.7551751 -5.5991821 -0.38498333 2 6
-13.757812 -16.193989 4.9057326 24 14
-8.7760744 -10.326447 -0.23654993 5 7
-12.929691 -15.208467 5.3487544 15 15
-1.2117461 -1.4217845 -0.50055605 4 0
-13.089175 -15.352564 0.35215467 5 8
-1.3986149 -1.6398853 -0.49759173 3 1
-1.6157489 -1.8938059 -0.48389161 100 2
-1.9560292 -2.2910266 -0.4771252 3 3
-26.681581 -31.240118 5.0444164 9 11
-2.4512973 -2.8690865 -0.46334729 1 4
-13.001137 -15.211615 3.1693625 15 12
-3.2271447 -3.7758298 -0.43455851 1 5
-4.7669015 -5.573442 -0.38435531 1 6
-13.771186 -16.095518 4.8904362 19 14
-8.7912598 -10.271444 -0.23599143 5 7
-12.995265 -15.177916 5.353931 5 15
-1.2267675 -1.4292735 -0.50469714 4 0
-13.07755 -15.230925 0.35040942 5 8
-1.4068706 -1.6379495 -0.49849153 3 1
-1.6351444 -1.9030452 -0.48770785 100 2
-26.878025 -31.270676 3.6075504 12 10
-1.9640151 -2.2841845 -0.4771252 3 3
-13.880662 -16.137758 2.6136103 7 11
-2.4742439 -2.8755603 -0.46578467 1 4
-13.073404 -15.193879 3.1746814 14 12
-3.2325063 -3.7554829 -0.43351269 1 5
-13.517261 -15.698632 4.0268331 50 13
-4.7811127 -5.5507164 -0.38393661 1 6
-13.495275 -15.662039 4.7730112 23 14
-8.8161364 -10.23163 -0.2357471 4 7
-13.463015 -15.619085 5.5252695 20 15
-1.2330122 -1.4264443 -0.50521481 4 0
-13.070448 -15.120909 0.34887362 5 8
-1.4071957 -1.6273792 -0.49669194 3 1
-27.678404 -31.997931 2.2172654 9 9
-1.6366382 -1.8913877 -0.48618135 100 2
-27.652044 -31.944933 3.6964493 13 10
-1.9612356 -2.2657108 -0.47462222 3 3
-13.925004 -16.081133 2.6119039 28 11
-2.4629705 -2.8433323 -0.46188486 1 4
-13.157413 -15.183977 3.1821902 15 12
-3.2560358 -3.7562206 -0.43490714 1 5
-13.173177 -15.196809 3.9092948 8 13
-4.7916427 -5.5257773 -0.38330859 2 6
-13.904684 -16.029381 4.8989844 11 14
-8.8216534 -10.166056 -0.2349443 4 7
-13.530116 -15.586583 5.5304461 22 15
-1.2377357 -1.4223475 -0.50521481 4 0
-13.081135 -15.026927 0.34775665 5 8
-1.4141479 -1.6239263 -0.49714181 3 1
-27.742695 -31.846912 2.2134972 9 9
-1.6377431 -1.8800286 -0.4846549 100 2
-1.9795176 -2.2707629 -0.4771252 3 3
-2.4728808 -2.8347175 -0.46188486 1 4
-13.186956 -15.111167 3.1765587 12 12
-3.2717474 -3.7478344 -0.4352558 1 5
-13.175786 -15.093055 3.894412 9 13
-4.8135295 -5.5120263 -0.38351792 2 6
-13.942604 -15.9602 4.8926854 11 14
-8.8399801 -10.115625 -0.23449054 4 7
-13.618773 -15.578528 5.5444217 18 15
-1.2378466 -1.4119908 -0.50314426 4 0
-13.165146 -15.017261 0.34859437 5 8
-1.4249471 -1.6248411 -0.49894145 3 1
-28.193518 -32.137234 2.2405024 9 9
-1.6394433 -1.8681104 -0.4831284 100 2
-1.9865229 -2.2620084 -0.4768123 3 3
-13.954406 -15.889564 2.5965486 15 11
-2.493243 -2.8379984 -0.46383476 1 4
-13.22137 -15.044271 3.1721785 15 12
-3.2769167 -3.7274127 -0.43420991 1 5
-13.210277 -15.021071 3.8883057 6 13
-4.8257861 -5.4853482 -0.3828899 2 6
-13.908307 -15.803664 4.8602924 11 14
-8.8593807 -10.066694 -0.23407167 4 7
-13.254362 -15.055297 5.3746367 16 15
-1.2325393 -1.3960755 -0.49900314 4 0
-13.257163 -15.010875 0.3495717 5 8
-1.4360539 -1.6254491 -0.50074106 3 1
-14.042345 -15.894332 1.1115111 42 9
-1.6511544 -1.8682611 -0.4846549 100 2
-14.014962 -15.852182 1.8511879 18 10
-1.9878634 -2.2476616 -0.47524795 3 3
-13.971777 -15.792218 2.5889926 14 11
-2.4931023 -2.8169494 -0.46188486 1 4
-3.2793431 -3.7040164 -0.4328154 1 5
-13.248311 -14.9587 3.8841081 4 13
-4.844903 -5.4684711 -0.3828899 2 6
-13.937543 -15.725849 4.8512945 10 14
-8.889164 -10.02972 -0.23393205 3 7
-13.347847 -15.055197 5.391201 9 15
-1.2451067 -1.4004271 -0.50210893 4 0
-13.344071 -15.008673 0.35054904 5 8
-1.4271901 -1.6046604 -0.49579209 3 1
-14.083138 -15.828804 1.1103598 92 9
-1.6681077 -1.8742182 -0.48770785 100 2
-14.07021 -15.803164 1.8511879 21 10
-1.9979331 -2.2440081 -0.47587368 3 3
-14.059717 -15.785822 2.5955734 16 11
-2.5129943 -2.8205235 -0.46383476 1 4
-14.047643 -15.761192 3.3439436 36 12
-3.2842977 -3.6836243 -0.43176955 2 5
-13.756436 -15.429034 4.0180559 15 13
-4.8470573 -5.4344878 -0.38163382 2 6
-13.922147 -15.603933 4.8278999 10 14
-8.9374361 -10.013549 -0.23428111 3 7
-38.348186 -42.950436 15.428205 18 15
-1.2574743 -1.4049274 -0.50521481 4 0
-13.432397 -15.002228 0.35149148 8 8
-1.4340826 -1.6011207 -0.49624202 3 1
-1.6612127 -1.8540543 -0.48389161 100 2
-27.26368 -30.417896 3.573734 25 10
-2.0044351 -2.2355499 -0.47556084 3 3
-14.109429 -15.730741 2.5945985 18 11
-2.5228245 -2.8117344 -0.46383476 1 4
-14.052438 -15.656196 3.3320546 34 12
-3.296495 -3.6727128 -0.43176955 2 5
-13.873164 -15.451044 4.0363736 28 13
-4.8499827 -5.399704 -0.38037777 2 6
-37.596367 -41.843021 12.986875 19 14
-8.9429245 -9.9495735 -0.23351321 3 7
-13.336372 -14.832356 5.3446136 14 15
-1.2559037 -1.3933544 -0.5026266 4 0
-13.531548 -15.007229 0.35271314 5 8
-1.4448841 -1.6018929 -0.4980416 3 1
-28.928482 -32.060753 2.2631116 20 9
-1.6650442 -1.8453289 -0.4831284 100 2
-27.294928 -30.239723 3.5639725 12 10
-2.0109029 -2.2270727 -0.47524795 3 3
-2.5060072 -2.773453 -0.45896 1 4
-14.140114 -15.643686 3.3398762 21 12
-3.3146381 -3.6670961 -0.4324668 2 5
-14.038936 -15.526302 4.0688114 7 13
-4.8607631 -5.3738546 -0.37974975 2 6
-37.791874 -41.766445 13.00397 19 14
-8.9239225 -9.8589935 -0.232117 4 7
-38.8857 -42.945152 15.52345 19 15
-1.2607595 -1.3889623 -0.5026266 4 0
-13.62149 -15.001357 0.35369048 5 8
-1.4478465 -1.5939546 -0.49714181 3 1
-31.640549 -34.821331 2.4657564 12 9
-1.6741155 -1.8424121 -0.48389161 100 2
-27.63887 -30.406689 3.595 12 10
-2.0186646 -2.2200398 -0.47524795 3 3
-27.818031 -30.582338 5.0761023 18 11
-2.5049851 -2.7529428 -0.45701009 1 4
-14.230539 -15.633677 3.3483238 17 12
-3.3059599 -3.6319289 -0.42967781 2 5
-14.370627 -15.782043 4.1489511 17 13
-4.876802 -5.3539014 -0.37954038 1 6
-14.384044 -15.785705 4.9304771 13 14
-8.9407701 -9.8085699 -0.23166324 5 7
-1.2551731 -1.3731457 -0.49848551 4 0
-13.715608 -14.999462 0.35477251 8 8
-1.4612931 -1.5975188 -0.49984124 3 1
-29.321482 -32.043678 2.2763004 20 9
-1.6778859 -1.8336602 -0.4831284 100 2
-2.021066 -2.2071524 -0.47399649 3 3
-27.857565 -30.411867 5.0639153 18 11
-2.5253084 -2.7558904 -0.45896 1 4
-14.234302 -15.528572 3.3364346 34 12
-3.3320808 -3.6350543 -0.43142092 2 5
-14.418995 -15.724548 4.1470428 16 13
-4.8927603 -5.3339014 -0.37933105 1 6
-38.180035 -41.607841 13.037263 19 14
-8.9627838 -9.7640429 -0.2313491 3 7
-1.2651922 -1.3744413 -0.50055605 4 0
-13.818003 -15.005922 0.35606399 5 8
-1.4536575 -1.5780751 -0.49534222 3 1
-39.707096 -43.090481 3.0708649 56 9
-1.6922593 -1.8364543 -0.48541811 100 2
-2.0274181 -2.1986325 -0.47368363 3 3
-27.912416 -30.258987 5.0546532 18 11
-2.5187583 -2.7295518 -0.45603511 1 4
-14.297796 -15.488954 3.3386247 27 12
-3.3231258 -3.5999773 -0.42863193 2 5
-14.484452 -15.685659 4.1500959 2 13
-4.9140606 -5.3197246 -0.37954038 1 6
-38.393803 -41.548752 13.060658 20 14
-8.9805241 -9.7150755 -0.23093024 4 7
-1.2752357 -1.3756834 -0.5026266 4 0
-13.921963 -15.013319 0.35739037 5 8
-1.4565067 -1.5701338 -0.49444243 3 1
-1.6933178 -1.8247795 -0.48389161 100 2
-28.270237 -30.454367 3.6354403 26 10
-2.0377691 -2.1944368 -0.47430936 3 3
-27.958422 -30.097374 5.0439286 9 11
-2.5228651 -2.714927 -0.45506018 2 4
-14.456684 -15.551798 3.3630285 31 12
-3.3519511 -3.6058662 -0.4307237 2 5
-42.521069 -45.726097 12.137362 29 13
-4.9217157 -5.2908411 -0.37870303 1 6
-38.575787 -41.454411 13.073256 20 14
-9.0021191 -9.670496 -0.23061611 5 7
-40.021278 -42.977703 15.735682 21 15
-1.2853028 -1.3768725 -0.50469714 4 0
-14.015229 -15.008475 0.35843751 5 8
-1.4646395 -1.5678878 -0.49534222 3 1
-1.694315 -1.8131202 -0.48236516 100 2
-28.379093 -30.358412 3.6357889 13 10
-2.0454171 -2.1873097 -0.47430936 3 3
-29.015295 -31.017277 5.2150335 19 11
-2.5241885 -2.6974072 -0.45359772 2 4
-14.547332 -15.540176 3.3714762 9 12
-3.3631558 -3.5926888 -0.43054935 3 5
-42.546219 -45.434097 12.099199 29 13
-4.9456162 -5.279459 -0.37912172 1 6
-38.776226 -41.37923 13.092152 20 14
-9.0029955 -9.604002 -0.22977838 5 7
-15.058038 -16.057631 5.8984861 5 15
-1.2834852 -1.3653396 -0.50210893 5 0
-14.122327 -15.017735 0.35983372 2 8
-1.4727737 -1.5656048 -0.49624202 3 1
-40.510651 -43.049038 3.097975 19 9
-1.6979427 -1.8043354 -0.48160195 100 2
-28.36199 -30.128593 3.620101 26 10
-2.0476224 -2.1744046 -0.4730579 3 3
-2.5363121 -2.6914685 -0.4540852 2 4
-14.589289 -15.476368 3.36866 24 12
-3.360642 -3.5649807 -0.42863193 2 5
-39.221382 -41.591633 11.112335 21 13
-4.9557929 -5.2534447 -0.37849367 1 6
-38.981941 -41.30883 13.112847 20 14
-9.0227385 -9.5579758 -0.22942933 5 7
-1.2762905 -1.3482246 -0.4974502 4 0
-14.185667 -14.97996 0.36011297 2 8
-1.4795699 -1.561869 -0.49669194 3 1
-1.7096324 -1.8040977 -0.4831284 100 2
-39.391563 -41.553604 5.0093632 28 10
-2.0511222 -2.1629438 -0.47211927 3 3
-31.33507 -33.031826 5.5903912 10 11
-2.545691 -2.6825991 -0.4540852 2 4
-14.647304 -15.429646 3.3695989 22 12
-3.3648353 -3.544558 -0.42758605 2 5
-39.231144 -41.312099 11.074173 63 13
-4.9603438 -5.2216349 -0.37744695 0 6
-39.160801 -41.209229 13.124544 20 14
-9.0464048 -9.5162745 -0.22918501 4 7
-42.282322 -44.462944 16.440704 27 15
-1.2876536 -1.3507532 -0.50003839 4 0
-14.279271 -14.973765 0.3611601 2 8
-1.4782873 -1.5496446 -0.49444243 3 1
-1.7159196 -1.7981188 -0.4831284 100 2
-2.0572956 -2.1543422 -0.47180638 3 3
-39.493732 -41.342274 7.0201626 17 11
-2.5550399 -2.6736968 -0.4540852 2 4
-14.728374 -15.406981 3.3758564 27 12
-3.3826945 -3.5385518 -0.4282833 2 5
-14.70172 -15.373726 4.134831 2 13
-4.9702568 -5.1956282 -0.37681893 1 6
-14.058078 -14.690394 4.6942787 12 14
-9.0671206 -9.4716396 -0.22887085 5 7
-42.325035 -44.197876 16.397223 26 15
-1.2990503 -1.3532181 -0.5026266 4 0
-14.439489 -15.036331 0.36388266 2 8
-1.4796373 -1.5402592 -0.49309272 3 1
-41.300465 -42.99258 3.1243522 39 9
-1.7249064 -1.7949493 -0.48389161 100 2
-29.578955 -30.769312 3.7341006 14 10
-2.0743876 -2.1571152 -0.47399649 3 3
-30.964884 -32.188519 5.4841213 10 11
-2.5446253 -2.6451809 -0.45067286 2 4
-14.81089 -15.390793 3.3830521 15 12
-3.3977897 -3.5295932 -0.42863193 2 5
-14.729423 -15.295446 4.1275806 12 13
-4.9911346 -5.1811242 -0.37702829 0 6
-39.589119 -41.096092 13.174033 20 14
-9.0818291 -9.4242411 -0.228452 4 7
-41.476521 -43.02528 16.013134 46 15
-1.3062156 -1.351681 -0.50366187 5 0
-14.508731 -15.008493 0.36437133 2 8
-1.4860914 -1.5367448 -0.49354258 3 1
-41.53722 -42.953014 3.13147 19 9
-1.7253891 -1.7835752 -0.48236516 100 2
-29.287336 -30.264435 3.6845961 27 10
-2.0829031 -2.1516435 -0.47430936 3 3
-31.67355 -32.707405 5.5903912 10 11
-2.5671926 -2.6509881 -0.45311025 2 4
-14.857721 -15.337335 3.3821135 2 12
-3.3956096 -3.503999 -0.42688882 2 5
-14.765031 -15.231009 4.1233826 28 13
-5.0082884 -5.1645446 -0.37702829 1 6
-39.765881 -41.006557 13.187531 20 14
-9.0796127 -9.3596268 -0.22761428 5 7
-41.65126 -42.920776 16.025558 23 15
-1.2931787 -1.3293409 -0.4969326 4 0
-14.60584 -15.009025 0.36555812 3 8
-1.4979759 -1.53879 -0.49579209 3 1
-31.793629 -32.648479 2.3882992 23 9
-1.7258153 -1.7722181 -0.48083872 100 2
-2.0858912 -2.1404803 -0.47337076 3 3
-34.550419 -35.44223 6.0773811 12 11
-2.5736589 -2.6391683 -0.45262277 2 4
-39.955303 -40.958038 9.0625629 54 12
-3.4030371 -3.488441 -0.42636588 3 5
-14.804489 -15.170723 4.1203299 12 13
-5.0225968 -5.1450491 -0.37681893 1 6
-39.965954 -40.926064 13.206427 20 14
-9.109436 -9.3250132 -0.22754449 5 7
-41.922348 -42.899467 16.072145 23 15
-1.303219 -1.3303385 -0.49900314 4 0
-14.694527 -14.995086 0.36646563 3 8
-1.5033382 -1.5335517 -0.49579209 3 1
-42.132545 -42.964283 3.1536603 20 9
-1.7402388 -1.7745929 -0.4831284 100 2
-31.035795 -31.637444 3.8773847 15 10
-2.0891993 -2.1289563 -0.47243217 3 3
-2.5772915 -2.6245039 -0.45164782 2 4
-40.158943 -40.880322 9.0763292 55 12
-3.4124007 -3.4736979 -0.42601725 5 5
-14.843596 -15.10495 4.1165137 12 13
-5.034924 -5.1217899 -0.37640023 1 6
-40.152306 -40.830761 13.220823 20 14
-9.125103 -9.2760515 -0.22712563 5 7
-42.193783 -42.876808 16.118732 24 15
-1.3078544 -1.3257815 -0.49900314 4 0
-14.802965 -15.000635 0.36786184 3 8
-1.5045753 -1.5241343 -0.49444243 3 1
-32.197609 -32.604786 2.4014878 11 9
-1.7464223 -1.768508 -0.4831284 100 2
-32.616249 -33.017193 4.0604115 16 10
-2.0938418 -2.11884 -0.47180638 3 3
-30.892212 -31.250137 5.3954 10 11
-2.5920203 -2.6211369 -0.45262277 2 4
-40.359753 -40.798862 9.089469 55 12
-3.4357159 -3.4730961 -0.42741176 5 5
-14.904511 -15.061419 4.118803 14 13
-5.0218596 -5.0729561 -0.37409744 1 6
-40.368629 -40.765125 13.245118 20 14
-9.1461658 -9.2327785 -0.22684637 5 7
-42.506374 -42.893925 16.180849 24 15
-1.3192819 -1.3280609 -0.50159132 5 0
-14.925715 -15.019794 0.36960706 3 8
-1.5140078 -1.5230191 -0.49579209 3 1
-32.350658 -32.531849 2.4044187 11 9
-1.7525851 -1.7624009 -0.4831284 100 2
-2.1012247 -2.1115186 -0.47180638 3 3
-2.5927498 -2.6036336 -0.45116034 2 4
-40.568832 -40.724918 9.1044874 55 12
-3.4464116 -3.4596713 -0.42723745 5 5
-14.901564 -14.953675 4.1035385 8 13
-5.0310779 -5.0469069 -0.37346941 2 6
-40.579475 -40.692966 13.267613 20 14
-9.1656284 -9.188055 -0.22653224 4 7
-42.846897 -42.936726 16.253319 25 15
-1.3239098 -1.3234477 -0.50159132 4 0
-15.048778 -15.038277 0.37135231 3 8
-1.5138003 -1.5122159 -0.49399251 3 1
-42.953243 -42.893314 3.1812937 20 9
-1.7531695 -1.7507235 -0.48160195 100 2
-2.1057858 -2.1013803 -0.47118065 3 3
-32.959114 -32.878681 5.7161603 11 11
-2.607445 -2.600174 -0.45213532 2 4
-40.786285 -40.658363 9.1213818 55 12
-3.4598782 -3.4490263 -0.42741176 3 5
-5.0599842 -5.0405912 -0.3743068 2 6
-40.754414 -40.584068 13.278411 20 14
-9.169302 -9.1277885 -0.22583415 3 7
-1.3244079 -1.3147355 -0.50003839 5 0
-1.5273707 -1.5151571 -0.49669194 3 1
-43.301243 -42.940014 3.1959479 21 9
-1.7509054 -1.7362989 -0.47931221 100 2
-2.1229303 -2.1037502 -0.47337076 3 3
-2.6108634 -2.5854692 -0.45116034 2 4
-40.975697 -40.562996 9.132019 55 12
-3.4506571 -3.4159026 -0.42479706 3 5
-5.0761275 -5.0214944 -0.37420213 3 6
-40.973427 -40.518295 13.303605 20 14
-9.1712446 -9.0662022 -0.22510114 4 7
-43.076893 -42.568665 16.227436 25 15
-1.3262379 -1.3073916 -0.49900314 5 0
-37.424152 -36.879463 0.91712397 19 8
-1.5354265 -1.5125518 -0.49759173 3 1
-43.615955 -42.951157 3.2080898 21 9
-1.7625515 -1.7356865 -0.48083872 100 2
-2.1260366 -2.0921707 -0.47243217 3 3
-2.6340263 -2.5902586 -0.45359772 2 4
-41.187462 -40.488964 9.1476631 56 12
-3.4654009 -3.406631 -0.42514572 2 5
-41.33242 -40.617264 11.264219 21 13
-5.0907755 -5.0009456 -0.37399277 3 6
-41.167458 -40.426895 13.320702 20 14
-9.2056885 -9.0369368 -0.22517094 4 7
-43.398956 -42.588528 16.29266 25 15
-1.3349351 -1.3068085 -0.50055605 4 0
-37.792755 -36.983578 0.92298794 20 8
-1.5267667 -1.4935555 -0.49309272 3 1
-36.240257 -35.439548 2.6564689 14 9
-1.7770213 -1.737759 -0.4831284 100 2
-31.477842 -30.771627 3.851238 14 10
-2.1319141 -2.0833557 -0.47211927 3 3
-2.6288493 -2.5671799 -0.45116034 2 4
-41.382271 -40.397369 9.1595516 56 12
-3.4829745 -3.4000797 -0.42584294 2 5
-41.943249 -40.930706 11.39168 22 13
-5.0953326 -4.9705935 -0.37305072 3 6
-41.417141 -40.38908 13.355794 20 14
-9.2185631 -8.9866009 -0.22471718 4 7
-43.669106 -42.555424 16.338211 26 15
-1.3353326 -1.2981013 -0.49900314 4 0
-21.776646 -21.162083 0.53002959 5 8
-1.5319712 -1.4882166 -0.49309272 3 1
-36.016624 -34.987957 2.6315567 14 9
-1.7774423 -1.7260749 -0.48160195 100 2
-2.1320856 -2.0690227 -0.47055492 3 3
-2.6320941 -2.55246 -0.45018539 2 4
-41.606754 -40.347942 9.1795759 56 12
-3.5119889 -3.4045427 -0.42793471 2 5
-41.939243 -40.641953 11.351991 43 13
-5.1112194 -4.9513865 -0.37294605 4 6
-41.622272 -40.306622 13.37649 21 14
-9.2425671 -8.9504166 -0.22457758 5 7
-43.998756 -42.593117 16.408611 26 15
-1.3370759 -1.2907486 -0.49796787 4 0
-35.501431 -34.271366 0.86131114 18 8
-1.5425069 -1.4885411 -0.4948923 3 1
-42.19875 -40.708191 3.0728538 18 9
-1.7749774 -1.7116832 -0.47931221 100 2
-33.986969 -32.763557 4.130136 17 10
-2.1446238 -2.0674248 -0.47180638 3 3
-2.6405442 -2.5437174 -0.45018539 2 4
-41.821342 -40.273701 9.1958447 56 12
-3.5209808 -3.3894989 -0.42758605 1 5
-42.014385 -40.445465 11.335963 65 13
-5.123292 -4.9302564 -0.37263206 4 6
-41.792217 -40.203503 13.388186 21 14
-9.2434855 -8.8889923 -0.22384456 6 7
-44.356068 -42.640106 16.486256 27 15
-1.3427433 -1.2876447 -0.49848551 4 0
-38.432865 -36.842922 0.92930573 20 8
-1.5533214 -1.4885414 -0.49669194 4 1
-42.251175 -40.474983 3.066364 18 9
-1.7820617 -1.7071458 -0.47969386 100 2
-2.1603885 -2.0681224 -0.47368363 3 3
-2.6580143 -2.5427172 -0.45164782 2 4
-42.015923 -40.179352 9.2077341 57 12
-3.5091622 -3.355772 -0.42479706 1 5
-42.070152 -40.217175 11.313066 43 13
-5.1419158 -4.9137211 -0.37273672 4 6
-41.991482 -40.113911 13.407083 21 14
-9.2484245 -8.8318148 -0.22321628 6 7
-44.876347 -42.839832 16.623947 28 15
-1.3416338 -1.2776207 -0.49641496 4 0
-38.526474 -36.675449 0.92846799 20 8
-1.5556843 -1.4804232 -0.49579209 4 1
-42.24749 -40.18959 3.0558968 18 9
-1.7894323 -1.7022679 -0.48007545 100 2
-2.1547091 -2.0483196 -0.47086781 2 3
-33.292259 -31.637381 5.6391387 11 11
-2.6668739 -2.5334234 -0.45164782 2 4
-42.227528 -40.10046 9.2233772 28 12
-3.5237434 -3.346247 -0.42514572 2 5
-42.532074 -40.375553 11.399312 22 13
-5.1561399 -4.8929925 -0.37252739 4 6
-42.255657 -40.085117 13.446673 21 14
-9.2748461 -8.7953482 -0.22311155 6 7
-45.16581 -42.815826 16.675711 29 15
-1.3488923 -1.2755848 -0.4974502 4 0
-38.785049 -36.664379 0.93160945 20 8
-1.5466788 -1.4615991 -0.49129307 3 1
-34.869701 -32.940086 2.5139055 12 9
-1.7982175 -1.6987082 -0.48083872 100 2
-2.1618459 -2.0407858 -0.47086781 3 3
-33.474686 -31.589088 5.6513257 11 11
-2.6699247 -2.5186508 -0.45067286 2 4
-33.439663 -31.533995 7.2798352 15 12
-3.5412009 -3.3393939 -0.42584294 2 5
-42.72419 -40.275311 11.41305 22 13
-5.1586509 -4.861268 -0.37148067 5 6
-42.466248 -40.004189 13.46917 21 14
-9.2967558 -8.754693 -0.22290213 5 7
-45.469715 -42.803577 16.732651 29 15
-1.3575619 -1.2748355 -0.49900314 4 0
-1.551771 -1.4561918 -0.49129307 4 1
-35.33699 -33.148842 2.5392361 13 9
-1.7984091 -1.6870475 -0.47931221 100 2
-2.1617506 -2.0264728 -0.46930346 3 3
-2.6671104 -2.4984586 -0.44872296 2 4
-33.713905 -31.571001 7.3155026 15 12
-3.5441101 -3.3188412 -0.42479706 2 5
-42.784248 -40.050804 11.39168 22 13
-5.1712141 -4.8391376 -0.37116665 5 6
-42.662563 -39.908947 13.487165 21 14
-9.3155727 -8.7112627 -0.2226229 5 7
-45.819248 -42.831928 16.806158 30 15
-1.3690681 -1.2766765 -0.50159132 4 0
-22.066631 -20.570276 0.52657402 5 8
-1.5568451 -1.4507657 -0.49129307 3 1
-46.141285 -42.982296 3.3048067 24 9
-1.8042871 -1.6807593 -0.47931221 100 2
-33.381496 -31.085224 3.9906871 16 10
-2.1832702 -2.0323732 -0.47243217 3 3
-2.6787224 -2.4918375 -0.44921044 2 4
-42.885277 -39.879364 9.2753134 29 12
-3.5556736 -3.3064497 -0.42479706 2 5
-43.148109 -40.109734 11.451212 22 13
-5.1880746 -4.8210568 -0.37116665 5 6
-42.890125 -39.842022 13.515059 21 14
-9.316617 -8.6514778 -0.2219248 5 7
-46.115734 -42.808418 16.859991 30 15
-1.3650112 -1.2640147 -0.49848551 4 0
-39.143379 -36.234493 0.93105102 20 8
-1.5704815 -1.4532638 -0.49399251 4 1
-1.8043784 -1.6691185 -0.47778577 100 2
-2.1918018 -2.0260806 -0.472745 3 3
-33.713245 -31.153292 5.6362138 22 11
-2.6903205 -2.4851658 -0.44969791 2 4
-43.114197 -39.812511 9.2947111 29 12
-3.5525563 -3.2805014 -0.42305395 2 5
-5.2034035 -4.8015628 -0.37106195 6 6
-43.097694 -39.755489 13.536654 21 14
-9.3320599 -8.6053486 -0.22157577 5 7
-46.435333 -42.804302 16.922108 31 15
-1.3694152 -1.2592422 -0.49848551 4 0
-22.186152 -20.394064 0.52601552 5 8
-1.5784147 -1.45041 -0.4948923 4 1
-38.212097 -35.100929 2.7192719 15 9
-1.8188682 -1.6707789 -0.48007545 100 2
-2.1828535 -2.0037234 -0.46930346 3 3
-2.7019048 -2.4784434 -0.45018539 2 4
-43.372292 -39.771244 9.3203669 29 12
-3.5639856 -3.2680805 -0.42305395 2 5
-43.456013 -39.834068 11.458844 22 13
-5.2171874 -4.7806716 -0.37085262 4 6
-43.328175 -39.689049 13.565449 22 14
-9.3443432 -8.5565147 -0.2211569 5 7
-46.726963 -42.772388 16.973871 31 15
-1.375229 -1.2557569 -0.49900314 5 0
-22.212896 -20.276049 0.52496839 16 8
-1.5748307 -1.4370106 -0.49219292 4 1
-38.399315 -35.02655 2.7238774 15 9
-1.8275905 -1.6670659 -0.48083872 100 2
-2.188374 -1.9947613 -0.46899059 3 3
-33.947525 -30.933216 5.6391387 11 11
-2.7134748 -2.4716702 -0.45067286 2 4
-43.563431 -39.667496 9.3316298 29 12
-3.5724249 -3.2529383 -0.42270535 2 5
-43.603512 -39.690052 11.461134 44 13
-5.2190714 -4.7489891 -0.3698059 5 6
-43.547173 -39.611004 13.590643 22 14
-9.3593588 -8.5103912 -0.22080785 4 7
-47.070404 -42.785744 17.04427 32 15
-1.3781734 -1.2496507 -0.49848551 5 0
-22.160559 -20.086926 0.5220713 16 8
-1.5740608 -1.4262706 -0.49039328 4 1
-38.4207 -34.801117 2.7167599 15 9
-1.8304886 -1.6580397 -0.48007545 100 2
-2.2026463 -1.9937385 -0.47055492 3 3
-33.975807 -30.742605 5.6259766 11 11
-2.7132523 -2.4541941 -0.44921044 2 4
-43.769032 -39.57613 9.3460217 29 12
-3.5926251 -3.2484658 -0.42375124 2 5
-5.2267241 -4.7227097 -0.36917788 4 6
-43.786415 -39.550179 13.622136 22 14
-9.3726835 -8.4629278 -0.22042391 3 7
-47.400146 -42.784279 17.109493 32 15
-1.3868337 -1.2487106 -0.50003839 5 0
-22.261753 -20.03754 0.52280426 10 8
-1.5877222 -1.4285878 -0.49309272 3 1
-47.775364 -42.971863 3.3676097 26 9
-1.8245873 -1.641137 -0.4770225 97 2
-2.2125311 -1.9886779 -0.47118065 3 3
-33.92934 -30.485847 5.6006279 22 11
-2.7099879 -2.4340961 -0.44726053 2 4
-44.00687 -39.512833 9.3672962 59 12
-3.6069081 -3.2385662 -0.42409983 2 5
-5.2446642 -4.7057695 -0.36928254 2 6
-43.985138 -39.451744 13.641032 22 14
-9.3842993 -8.4141426 -0.22000504 3 7
-47.727592 -42.778446 17.173679 33 15
-1.3796629 -1.233561 -0.49589732 4 0
-22.333054 -19.961044 0.52283919 21 8
-1.5897925 -1.4204404 -0.49219292 3 1
-1.8303049 -1.634758 -0.4770225 97 2
-36.400139 -32.499786 4.2692366 18 10
-2.2061954 -1.9691051 -0.46836486 3 3
-34.165897 -30.483526 5.622077 11 11
-2.7273574 -2.432549 -0.44872296 2 4
-44.250675 -39.45364 9.389823 30 12
-3.6033189 -3.212698 -0.42235672 2 5
-44.304005 -39.487309 11.535931 23 13
-5.2610593 -4.6874318 -0.36928254 2 6
-44.204063 -39.37056 13.666226 23 14
-9.3956909 -8.3653765 -0.21958618 4 7
-48.049805 -42.765697 17.235796 33 15
-1.3854049 -1.23002 -0.49641496 4 0
-22.329309 -19.817923 0.52112883 21 8
-1.5976565 -1.417469 -0.49309272 3 1
-48.429836 -42.952698 3.3925219 53 9
-1.8389379 -1.6309645 -0.47778577 97 2
-36.811531 -32.636879 4.3040991 18 10
-2.2189684 -1.9666325 -0.46961632 3 3
-34.24535 -30.34038 5.6176896 11 11
-2.7328594 -2.4203823 -0.44823548 2 4
-44.441376 -39.346077 9.4010868 30 12
-3.6130199 -3.1987796 -0.42218241 3 5
-5.2654219 -4.658453 -0.36844519 2 6
-44.471142 -39.330917 13.706268 23 14
-9.4218397 -8.3298759 -0.21951638 3 7
-48.300106 -42.687271 17.27203 34 15
-1.3882408 -1.2238995 -0.49589732 4 0
-22.338343 -19.68697 0.51973265 21 8
-1.590897 -1.4015776 -0.48949349 3 1
-48.58699 -42.805058 3.3935685 26 9
-1.8534594 -1.632321 -0.48007545 100 2
-2.2169228 -1.9510448 -0.46773914 3 3
-2.7353289 -2.4055841 -0.44726053 2 4
-44.72588 -39.33416 9.4336252 30 12
-3.621171 -3.183517 -0.42183378 3 5
-5.2756495 -4.6347718 -0.36802649 2 6
-44.678444 -39.237167 13.727863 23 14
-9.4148512 -8.26824 -0.21871355 3 7
-48.296227 -42.399418 17.220268 33 15
-1.4012262 -1.2266806 -0.49900314 5 0
-22.376423 -19.589075 0.51910436 21 8
-1.5955361 -1.3962942 -0.48949349 3 1
-48.937534 -42.811424 3.4075942 27 9
-1.8532349 -1.6206713 -0.478549 100 2
-22.468792 -19.64225 2.6110117 22 10
-2.2248678 -1.9449824 -0.46805197 3 3
-2.7462811 -2.3991122 -0.44774801 2 4
-44.973007 -39.273945 9.4567776 30 12
-3.648771 -3.1852713 -0.42375124 2 5
-45.001099 -39.284653 11.611491 48 13
-5.2849703 -4.6119981 -0.36760777 2 6
-44.884678 -39.155403 13.751258 23 14
-9.4511938 -8.2418938 -0.21888809 4 7
-48.577904 -42.347363 17.267889 34 15
-1.4125749 -1.2283659 -0.50159132 5 0
-22.435612 -19.502975 0.51889497 21 8
-1.6062838 -1.3958296 -0.49129307 3 1
-38.152065 -33.141708 2.6485138 14 9
-1.8497063 -1.6067917 -0.47625926 100 2
-22.405935 -19.456593 2.5961952 27 10
-2.2376101 -1.9423845 -0.46930346 3 3
-36.4091 -31.594208 5.9189506 12 11
-2.757638 -2.3921127 -0.44823548 2 4
-3.6502824 -3.1653221 -0.42270535 2 5
-45.280376 -39.250767 11.648127 24 13
-5.2889619 -4.5830584 -0.36677042 2 6
-45.133018 -39.095467 13.78545 24 14
-9.4511814 -8.1839838 -0.2182249 3 7
-48.897785 -42.326725 17.32897 34 15
-1.4066191 -1.2145891 -0.49796787 4 0
-22.330978 -19.275589 0.51491582 15 8
-1.6140974 -1.3927604 -0.49219292 3 1
-38.110233 -32.872658 2.6376278 14 9
-1.8553038 -1.6003252 -0.47625926 100 2
-22.449566 -19.357449 2.5934062 22 10
-2.241384 -1.9319824 -0.4686777 3 3
-2.7599545 -2.3772905 -0.44726053 2 4
-36.273518 -31.233206 7.5814404 16 12
-3.66131 -3.1525602 -0.42270535 2 5
-45.726608 -39.358868 11.727503 25 13
-5.3109822 -4.5697803 -0.36718911 2 6
-45.387417 -39.039337 13.821443 24 14
-9.4584637 -8.1326914 -0.21773623 3 7
-49.733799 -42.747643 17.572262 36 15
-1.4093834 -1.2084147 -0.4974502 5 0
-22.206821 -19.03355 0.51051778 15 8
-1.6204293 -1.3883849 -0.49264279 3 1
-38.285416 -32.791405 2.6418145 14 9
-1.866843 -1.5989482 -0.47778577 100 2
-22.595697 -19.346348 2.6024704 16 10
-2.2406111 -1.9177239 -0.46711335 3 3
-22.836422 -19.538645 3.6902039 4 11
-2.7772875 -2.3753836 -0.44872296 2 4
-37.069973 -31.694326 7.7247348 17 12
-3.6571486 -3.1268129 -0.42096224 2 5
-45.974152 -39.293411 11.755743 25 13
-5.3238649 -4.5486193 -0.36697978 2 6
-45.603436 -38.949009 13.845737 24 14
-9.4746256 -8.0892391 -0.217457 3 7
-49.903297 -42.591324 17.579508 36 15
-1.416535 -1.2059922 -0.49848551 5 0
-22.274649 -18.957214 0.5105527 21 8
-1.6163599 -1.375144 -0.48994341 3 1
-50.412952 -42.874454 3.4683042 29 9
-1.872413 -1.5924219 -0.47778577 100 2
-22.717741 -19.313816 2.6087456 22 10
-2.2442806 -1.9073329 -0.46648762 3 3
-22.927179 -19.478088 3.6938601 13 11
-2.7825367 -2.3631039 -0.44823548 2 4
-3.6650023 -3.1114497 -0.42061362 2 5
-46.03619 -39.069176 11.736662 25 13
-5.3336191 -4.524838 -0.36656106 2 6
-45.858013 -38.890419 13.881729 25 14
-9.4967041 -8.0509453 -0.21731737 3 7
-49.924915 -42.309448 17.53499 36 15
-1.4236866 -1.2035346 -0.49952078 5 0
-22.282648 -18.830299 0.50922632 21 8
-1.6151956 -1.3644631 -0.48814377 3 1
-38.666008 -32.652184 2.6522818 29 9
-1.8869599 -1.5934762 -0.48007545 100 2
-22.824604 -19.267813 2.6132777 22 10
-2.2554538 -1.903309 -0.46742624 3 3
-22.764397 -19.203382 3.6568117 18 11
-2.7877331 -2.3508177 -0.44774801 2 4
-37.713226 -31.791258 7.8123384 17 12
-3.6788878 -3.1012058 -0.42096224 3 5
-5.3279958 -4.4881783 -0.36509567 2 6
-46.10677 -38.825516 13.915922 25 14
-9.5186319 -8.0125923 -0.21717775 4 7
-49.921532 -42.008053 17.482193 35 15
-1.4278789 -1.198558 -0.49952078 5 0
-22.253265 -18.672709 0.5070622 20 8
-1.6214418 -1.3600692 -0.4885937 4 1
-50.383526 -42.246841 3.4459043 28 9
-1.8834845 -1.5793113 -0.47778577 97 2
-23.224592 -19.467035 2.6512778 23 10
-2.2681403 -1.9004991 -0.4686777 3 3
-22.666941 -18.986141 3.6304879 26 11
-2.7837458 -2.3308771 -0.4457981 2 4
-46.327923 -38.777397 9.5687847 31 12
-3.6851075 -3.0845087 -0.4204393 3 5
-5.3589497 -4.482368 -0.36614239 2 6
-46.277893 -38.694336 13.92672 25 14
-9.5250626 -7.9613624 -0.21668908 3 7
-49.931461 -41.719585 17.434568 35 15
-1.4290862 -1.1910924 -0.49848551 6 0
-22.223059 -18.515554 0.50489813 20 8
-1.6381583 -1.3643785 -0.49219292 4 1
-50.371056 -41.937805 3.4350185 28 9
-1.8769156 -1.5626776 -0.47473282 94 2
-22.878931 -19.041719 2.6042135 5 10
-2.2732418 -1.8913076 -0.46836486 3 3
-22.765125 -18.933558 3.6356065 13 11
-2.8010237 -2.3287601 -0.44726053 2 4
-46.523777 -38.665939 9.5812988 32 12
-3.6835945 -3.0614376 -0.41904479 3 5
-46.611919 -38.725464 11.779403 51 13
-5.3653445 -4.4559774 -0.36551434 2 6
-46.517647 -38.619682 13.958213 25 14
-9.531251 -7.9101887 -0.21620041 4 7
-49.901344 -41.39949 17.373487 35 15
-1.4257938 -1.1799382 -0.49589732 4 0
-22.235165 -18.394535 0.50371134 20 8
-1.6369042 -1.3536837 -0.49039328 3 1
-50.363209 -41.634468 3.4245515 27 9
-1.8884115 -1.5611198 -0.47625926 100 2
-22.957542 -18.971901 2.605608 11 10
-2.2737386 -1.878328 -0.46711335 3 3
-22.892305 -18.904537 3.6453559 21 11
-2.8030117 -2.3139143 -0.44628558 3 4
-3.6881113 -3.043489 -0.41834757 3 5
-5.3808646 -4.437223 -0.36551434 2 6
-46.784489 -38.566158 13.997804 26 14
-9.5634346 -7.8806853 -0.21630514 4 7
-49.917328 -41.119404 17.32897 34 15
-1.4373666 -1.1810868 -0.49848551 5 0
-22.248245 -18.274921 0.50255948 15 8
-1.6386074 -1.3454882 -0.48949349 3 1
-50.35384 -41.331699 3.414084 27 9
-1.8999192 -1.5595014 -0.47778577 100 2
-22.945074 -18.827192 2.5967181 16 10
-2.2741721 -1.8653685 -0.46586189 3 3
-22.898285 -18.775431 3.6358504 30 11
-2.8141429 -2.3066318 -0.44677305 3 4
-37.97924 -31.118868 7.7766709 17 12
-3.7017949 -3.0331221 -0.41869619 3 5
-5.390141 -4.4133506 -0.36509567 2 6
-46.982159 -38.454456 14.0167 26 14
-9.5800505 -7.8383894 -0.21606079 4 7
-49.902042 -40.815273 17.274101 34 15
-1.447468 -1.1809472 -0.50055605 5 0
-22.345999 -18.224949 0.50332743 20 8
-1.6342314 -1.3323722 -0.48679405 4 1
-50.36467 -41.047169 3.4050825 27 9
-1.9053514 -1.5528599 -0.47778577 97 2
-23.192926 -18.895473 2.6172869 16 10
-2.2806692 -1.8574193 -0.46586189 3 3
-23.120707 -18.823221 3.6607118 18 11
-2.8129394 -2.2892766 -0.44531062 3 4
-3.7061777 -3.0151522 -0.41799891 3 5
-47.337795 -38.497845 11.860307 53 13
-5.3900161 -4.3819094 -0.36404896 2 6
-47.291534 -38.432789 14.068889 26 14
-9.5933857 -7.7935534 -0.21574664 4 7
-49.933239 -40.550713 17.235796 33 15
-1.4500804 -1.1746713 -0.50003839 4 0
-22.316231 -18.071333 0.5012331 15 8
-1.6540191 -1.3389207 -0.49129307 4 1
-50.315128 -40.715305 3.392103 26 9
-1.9016036 -1.538789 -0.47549605 95 2
-22.766151 -18.415934 2.5618558 16 10
-2.290211 -1.851931 -0.46648762 3 3
-23.079754 -18.656288 3.6438937 13 11
-2.8178256 -2.276948 -0.44482315 3 4
-47.520092 -38.384991 9.6751604 33 12
-3.7368279 -3.0184729 -0.42026496 2 5
-47.600204 -38.435959 11.892363 54 13
-5.4021707 -4.360559 -0.3638396 2 6
-47.528519 -38.3507 14.099482 27 14
-9.592515 -7.7374201 -0.21511836 5 7
-49.884995 -40.223373 17.170574 33 15
-1.4421293 -1.1599162 -0.49589732 4 0
-22.38541 -17.998335 0.50137269 15 8
-1.6526071 -1.3282557 -0.48949349 4 1
-42.351326 -34.026997 2.8471811 16 9
-1.9069633 -1.5321418 -0.47549605 95 2
-22.803885 -18.315147 2.5588925 10 10
-2.3059037 -1.8513455 -0.46836486 3 3
-23.149382 -18.579338 3.6446249 17 11
-2.8350461 -2.2745521 -0.44628558 2 4
-47.807903 -38.342461 9.7064466 33 12
-3.7224746 -2.9854653 -0.41747603 2 5
-47.850494 -38.3629 11.921366 54 13
-5.4298267 -4.3516688 -0.36467698 1 6
-47.747284 -38.252781 14.124677 27 14
-9.6054192 -7.6926384 -0.21480422 6 7
-49.913486 -39.959663 17.132267 32 15
-1.44315 -1.1524642 -0.49486202 4 0
-21.465097 -17.135365 0.47941762 4 8
-1.6633265 -1.3273404 -0.49129307 3 1
-42.71965 -34.078247 2.8639286 16 9
-1.9092302 -1.5230278 -0.47473282 94 2
-23.073299 -18.399405 2.5819016 10 10
-2.2969058 -1.8309714 -0.46523616 3 3
-22.684698 -18.076571 3.5615098 12 11
-2.849179 -2.2695894 -0.44726053 3 4
-3.7141695 -2.9575596 -0.41538426 2 5
-48.070122 -38.264118 11.942736 55 13
-5.4434209 -4.3314452 -0.36457232 1 6
-48.011677 -38.190201 14.163368 27 14
-9.6243839 -7.6528411 -0.21462969 5 7
-49.868183 -39.638527 17.069117 32 15
-1.4517055 -1.1510202 -0.49641496 5 0
-21.603136 -17.122444 0.48116285 9 8
-1.6618398 -1.3166859 -0.48949349 4 1
-50.347309 -39.876183 3.3659351 26 9
-1.9176129 -1.5187918 -0.47549605 95 2
-22.873392 -18.109747 2.552443 21 10
-2.2939892 -1.8155875 -0.46335894 3 3
-22.920462 -18.133993 3.5885649 17 11
-2.847743 -2.2522409 -0.4457981 2 4
-48.266556 -38.159687 9.7452421 33 12
-3.7494771 -2.9643481 -0.41817325 2 5
-48.305058 -38.17643 11.967922 55 13
-5.4365673 -4.2950821 -0.36310691 2 6
-9.638483 -7.6092863 -0.21435046 5 7
-49.897049 -39.378036 17.031845 32 15
-1.4557141 -1.1459461 -0.49641496 5 0
-21.606203 -17.002403 0.47990626 9 8
-1.6572359 -1.3036478 -0.48679405 4 1
-50.294033 -39.56329 3.3535838 25 9
-1.9198164 -1.5096618 -0.47473282 94 2
-22.891047 -17.994078 2.5473878 21 10
-2.3096321 -1.8148919 -0.46523616 3 3
-22.718239 -17.845413 3.5471294 12 11
-2.8462191 -2.2349317 -0.44433567 2 4
-48.5047 -38.087257 9.7677689 34 12
-3.7535331 -2.9463215 -0.41747603 2 5
-48.561588 -38.104534 11.998452 56 13
-5.4358115 -4.2637539 -0.36206019 2 6
-9.6479282 -7.5649438 -0.21400142 5 7
-49.866196 -39.086029 16.976976 31 15
-1.4627497 -1.1432369 -0.4974502 5 0
-21.687672 -16.950369 0.48046476 9 8
-1.6707637 -1.3053435 -0.48949349 4 1
-50.305901 -39.289139 3.3452101 25 9
-1.9250745 -1.5029511 -0.47473282 100 2
-22.927017 -17.893227 2.5444248 15 10
-2.3265386 -1.8157302 -0.46742624 3 3
-23.332912 -18.203451 3.6336567 13 11
-2.8661375 -2.2352471 -0.44628558 2 4
-48.737061 -37.995445 9.7877932 34 12
-3.7637951 -2.9332008 -0.41747603 2 5
-48.817757 -38.044659 12.030508 57 13
-5.459374 -4.2530689 -0.36268821 2 6
-9.641139 -7.5054226 -0.2132684 4 7
-49.892551 -38.826313 16.939707 31 15
-1.4619546 -1.1348263 -0.49589732 5 0
-21.740393 -16.869654 0.48032513 9 8
-1.6722305 -1.2971147 -0.4885937 3 1
-49.653557 -38.501385 3.2928741 24 9
