# .PCD v0.7 - Point Cloud Data file format
VERSION 0.7
FIELDS x y z intensity ring
SIZE 4 4 4 4 2
TYPE F F F F U
COUNT 1 1 1 1 1
WIDTH 1195
HEIGHT 1
VIEWPOINT 0 0 0 1 0 0 0
POINTS 1195
DATA ascii
37.032391 -46.406288 5.1943078 31 10
35.584801 -44.62421 7.0079751 17 11
36.870174 -46.535271 5.1943078 31 10
35.236591 -44.505363 6.9699521 17 11
35.093292 -44.643696 6.9723892 17 11
36.578743 -46.835503 5.1991887 31 10
34.878616 -44.690807 6.96069 17 11
30.532122 -39.4897 -0.87129396 13 7
36.053989 -46.833965 5.1709499 31 10
30.476509 -39.689072 -0.87345809 13 7
39.149181 -51.186489 3.3772397 26 9
36.011272 -47.117832 5.1883812 31 10
30.408096 -39.887444 -0.8754825 13 7
34.591423 -45.539497 2.9970713 18 9
34.091171 -44.946033 6.9265666 17 11
30.352915 -40.090096 -0.87771648 13 7
33.86311 -44.954185 6.91048 17 11
30.246429 -40.240562 -0.87869376 13 7
34.19138 -45.638103 0.99538058 22 8
33.639412 -44.983093 6.8968306 16 11
4.4296703 -5.9298892 -0.64756715 30 5
30.167967 -40.429237 -0.88050884 14 7
33.838535 -45.497234 0.98972601 21 8
32.847946 -44.24593 6.7661867 16 11
4.4089446 -5.9453154 -0.64756715 42 5
8.0242882 -10.828384 -0.70632613 0 6
30.069511 -40.59214 -0.88176537 14 7
32.744423 -44.445934 6.7783732 16 11
30.015301 -40.816067 -0.88434833 14 7
33.713493 -46.029919 2.9901628 18 9
35.722763 -48.808964 5.291748 33 10
32.683598 -44.672825 6.7964101 16 11
37.383633 -51.134407 10.032456 36 12
4.4484468 -6.0869436 -0.65959466 5 5
37.445374 -51.237629 12.335802 31 13
29.922163 -40.98843 -0.88581431 14 7
35.146652 -48.321987 3.13147 19 9
32.410809 -44.626019 6.7720361 16 11
37.056026 -51.040699 9.9899063 36 12
4.4013219 -6.0645747 -0.65558547 5 5
37.151012 -51.209114 12.297641 31 13
7.9709883 -10.991282 -0.71155971 0 6
29.88467 -41.223427 -0.88874638 14 7
35.094681 -48.606308 3.1419373 19 9
32.134914 -44.556152 6.745225 16 11
37.1502 -51.547939 10.063743 37 12
4.3137426 -5.9877567 -0.64564973 13 5
36.94656 -51.284241 12.286191 31 13
29.770956 -41.36969 -0.88965386 14 7
37.720993 -52.591103 1.1296943 32 8
34.824738 -48.588905 3.1329353 19 9
31.893673 -44.548611 6.7271881 16 11
3.1689501 -4.4279752 -0.66857523 1 4
4.3078818 -6.0238466 -0.64791578 8 5
29.712385 -41.593769 -0.89223683 14 7
37.553421 -52.745258 1.130183 33 8
31.790871 -44.7341 6.7384005 16 11
3.1534739 -4.4390101 -0.66857523 3 4
4.3514132 -6.129828 -0.65767723 8 5
29.608654 -41.755959 -0.89349341 14 7
31.816605 -45.119625 6.778861 16 11
3.1337519 -4.4456701 -0.66784412 13 4
4.343761 -6.1645236 -0.65976894 10 5
29.536381 -41.963711 -0.89572728 14 7
3.1155775 -4.451159 -0.66711289 26 4
4.3302102 -6.1910777 -0.66098917 3 5
29.463018 -42.171471 -0.89796126 15 7
36.131058 -51.985779 7.773315 22 11
3.1079495 -4.4734192 -0.66881901 33 4
37.140877 -53.498466 12.659413 35 13
29.386284 -42.375942 -0.90012532 15 7
35.769264 -51.792458 3.2987356 24 9
3.0923154 -4.4842405 -0.66881901 30 4
29.322083 -42.600151 -0.90270829 15 7
31.158865 -45.523418 6.7734985 16 11
3.0781009 -4.4988208 -0.66930646 28 4
36.308018 -53.06625 10.183886 38 12
35.631516 -52.371178 3.3196702 24 9
31.007736 -45.626492 6.7734985 16 11
3.0598192 -4.5040774 -0.66857523 28 4
36.1381 -53.215546 10.188266 38 12
29.136192 -42.96933 -0.9061988 15 7
3.0418584 -4.5114393 -0.66808778 13 4
35.841808 -53.197727 12.468605 33 13
29.105219 -43.23159 -0.90968925 15 7
45.052895 -67.197685 4.2399459 50 9
35.885151 -53.56414 5.6407194 39 10
31.555815 -47.11972 6.9631271 17 11
35.708866 -53.381565 12.48387 33 13
44.818058 -67.35453 4.2399459 50 9
31.164785 -46.889019 6.9129171 17 11
37.72015 -57.075462 1.1941634 40 8
37.997807 -58.489136 8.564003 29 11
38.204269 -59.30415 11.173177 49 12
37.409973 -58.428913 6.0698748 47 10
37.723343 -58.963676 8.5947142 29 11
28.791273 -45.106327 -0.93405282 17 7
37.205791 -58.559147 6.0698748 47 10
37.774502 -59.546066 11.168797 49 12
28.740646 -45.375488 -0.93754327 17 7
44.382221 -70.368774 4.3601089 51 9
37.014519 -58.755314 8.5264673 28 11
28.660826 -45.600822 -0.94012624 17 7
37.558514 -60.012924 3.7103057 35 9
37.113079 -59.324184 6.1221681 48 10
28.550154 -45.778641 -0.94173187 17 7
37.36726 -60.243748 8.7043972 30 11
28.474361 -46.014053 -0.94452423 17 7
36.498631 -59.327667 11.032385 47 12
28.426281 -46.278622 -0.94801474 18 7
35.109959 -57.361641 1.1739186 38 8
42.626221 -69.696121 4.2816052 50 9
35.355488 -58.241108 3.5706735 31 9
28.008152 -46.301643 -0.94455916 17 7
35.100449 -58.278622 3.5654395 31 9
43.800869 -72.810486 10.432991 45 11
28.185932 -46.964954 -0.95607769 18 7
28.113895 -47.217693 -0.95921916 18 7
27.855337 -47.157143 -0.95600796 37 7
27.89052 -47.614365 -0.9631983 18 7
34.122143 -58.510212 3.5497389 31 9
27.70606 -47.680309 -0.96257007 18 7
30.98069 -53.509048 1.0792569 27 8
35.628792 -61.685997 11.282681 50 12
27.731598 -48.090668 -0.96899253 19 7
33.006882 -57.516815 5.8017831 42 10
27.671293 -48.355923 -0.97248304 19 7
7.3013535 -13.074948 -0.78483003 0 6
31.94907 -57.519211 5.7564626 41 10
31.403915 -57.45562 5.7285728 41 10
30.41194 -57.076321 5.6581511 39 10
30.188326 -57.136326 5.6536188 39 10
29.989435 -57.218472 5.651875 39 10
29.589243 -57.426441 5.651875 39 10
29.330597 -57.415829 5.6407194 39 10
29.962578 -59.367302 -1.1607596 31 7
29.642424 -59.246201 -1.1563616 31 7
31.089947 -62.411335 3.6542017 34 9
28.102766 -56.464115 5.5180044 37 10
29.380024 -59.211613 -1.1537786 31 7
27.909031 -56.569012 5.5187016 37 10
6.8963699 -14.009101 -0.8183251 0 6
29.12903 -59.224091 -1.1520333 31 7
27.779076 -56.779369 5.5302062 37 10
6.8579373 -14.054629 -0.81958115 0 6
28.90267 -59.259254 -1.1508466 31 7
6.8252106 -14.106059 -0.82125586 0 6
28.699129 -59.366985 -1.1509862 31 7
6.7966576 -14.173018 -0.82376802 0 6
28.510723 -59.506477 -1.1517541 31 7
27.636387 -57.966934 3.3655162 26 9
6.7669473 -14.24474 -0.82648951 0 6
28.309698 -59.620079 -1.1520333 31 7
27.401459 -57.994423 3.3615389 25 9
6.7512107 -14.340555 -0.83067638 0 6
28.154209 -59.830719 -1.1541975 31 7
27.2124 -58.118656 3.3632135 26 9
27.572412 -58.941109 5.6930127 40 10
6.7053089 -14.366483 -0.83088571 0 6
28.019548 -60.08812 -1.1572691 31 7
27.079971 -58.365479 3.3720059 26 9
26.982838 -58.182701 5.6110868 38 10
6.7037439 -14.494944 -0.83695668 0 6
27.923712 -60.432434 -1.162016 31 7
28.042395 -60.996567 3.5183375 30 9
6.6436739 -14.632319 -0.84219033 0 6
26.588894 -58.915287 3.3874977 26 9
6.6335254 -14.746496 -0.84742391 0 6
26.343954 -58.920216 3.3824732 26 9
6.5820117 -14.769561 -0.84742391 0 6
6.5304155 -14.792446 -0.84742391 0 6
26.184933 -59.707569 5.7039948 40 10
6.4787402 -14.815152 -0.84742391 0 6
6.4555635 -14.903653 -0.85119206 0 6
25.404257 -58.988007 3.3659351 26 9
6.4565239 -15.042439 -0.85789102 0 6
6.4039764 -15.064885 -0.85789102 0 6
26.588255 -62.912575 3.5794659 32 9
25.746696 -60.980671 5.7911506 42 10
26.334557 -62.923927 3.5748601 32 9
6.339726 -15.200295 -0.86312467 0 6
28.035118 -67.283844 -1.2723153 39 7
6.324749 -15.314633 -0.86835825 0 6
6.2685752 -15.337711 -0.86835825 0 6
27.339363 -66.926262 -1.2619137 38 7
6.2149978 -15.3595 -0.86835825 0 6
27.090586 -66.984222 -1.2612157 38 7
26.236948 -65.299377 6.1568561 48 10
6.1833496 -15.428226 -0.87107974 0 6
26.855856 -67.076515 -1.2611806 38 7
27.324982 -68.560112 1.2882668 51 8
26.618536 -67.128029 -1.2604827 38 7
26.821463 -68.020599 3.8319345 39 9
26.413277 -67.294991 -1.2618787 38 7
26.903517 -68.861855 1.2904658 51 8
26.595478 -68.14357 3.8336091 39 9
26.192692 -67.424057 -1.2625768 38 7
25.994493 -67.612137 -1.264392 38 7
6.0395484 -15.857526 -0.88929266 0 6
24.103531 -65.125374 6.0754523 47 10
24.061903 -65.610283 1.2198186 43 8
0.95703441 -2.6109815 -0.64201027 0 1
23.855925 -65.757782 1.2210053 43 8
24.311567 -67.086792 3.7396138 36 9
23.83013 -65.794106 6.1221681 48 10
5.8296943 -16.148375 -0.89975989 0 6
23.585711 -65.72773 1.2189109 43 8
24.111895 -67.230957 3.7431726 36 9
5.8068733 -16.262672 -0.90499347 0 6
23.351566 -65.760353 1.2180734 43 8
23.527252 -66.402069 6.1633053 48 10
5.6960444 -16.301821 -0.90499347 0 6
22.741549 -65.562607 3.636826 33 9
5.6818891 -16.454741 -0.91232049 0 6
22.51145 -65.675758 3.6385007 33 9
5.5742102 -16.525257 -0.91399521 0 6
22.677044 -67.656792 3.7396138 36 9
5.5855083 -16.732138 -0.92446244 1 6
22.445763 -67.750702 3.7404511 36 9
5.5445919 -16.80464 -0.92739326 1 6
22.225294 -67.877991 3.7431726 36 9
5.5081911 -16.89225 -0.93116146 1 6
5.4491901 -16.911375 -0.93116146 1 6
22.419996 -70.082169 3.8562186 39 9
5.3901262 -16.930292 -0.93116146 1 6
5.3567367 -17.020466 -0.93513894 1 6
5.299664 -17.046692 -0.93555766 1 6
5.2448168 -17.08036 -0.93639499 1 6
22.777475 -74.269897 -1.3559822 45 7
5.1990757 -17.144436 -0.93890715 1 6
22.518085 -74.348953 -1.3559822 45 7
5.1827388 -17.307892 -0.94686222 1 6
22.287077 -74.522896 -1.3577274 45 7
5.1653285 -17.471441 -0.9548173 1 6
22.091362 -74.818871 -1.3617065 45 7
5.1043119 -17.489365 -0.9548173 1 6
5.0841403 -17.649097 -0.96256298 1 6
21.119566 -73.410805 -1.3333638 43 7
5.0050273 -17.605261 -0.9592135 1 6
20.647444 -72.724236 -1.3195764 14 7
4.9608026 -17.684162 -0.96256298 1 6
20.52442 -73.708801 4.0098767 44 9
4.9255915 -17.785208 -0.96716857 1 6
4.8739591 -17.828413 -0.96863401 1 6
4.8335347 -17.926311 -0.97303021 1 6
22.152695 -82.272797 -1.4872242 52 7
4.7965913 -18.039585 -0.9782638 1 6
21.870514 -82.368965 -1.4875734 52 7
4.738657 -18.075539 -0.97931057 1 6
21.596024 -82.495094 -1.4884808 52 7
4.6955237 -18.169317 -0.98349744 1 6
21.332911 -82.666786 -1.490226 52 7
4.6360154 -18.20108 -0.98433477 1 6
4.5870395 -18.275267 -0.98747486 1 6
20.828199 -83.10466 -1.4954618 52 7
4.5376029 -18.349335 -0.99061513 1 6
20.537981 -83.176857 -1.4954618 52 7
4.4886513 -18.427156 -0.99396455 1 6
4.4475965 -18.539822 -0.9991982 1 6
4.387444 -18.574671 -1.000245 1 6
4.2876616 -18.720915 -1.0065252 1 6
18.251762 -79.819366 -1.4292126 49 7
4.2354617 -18.794222 -1.0096654 1 6
17.929123 -79.687492 -1.425722 49 7
4.1914454 -18.906385 -1.0148989 1 6
4.1322312 -18.952126 -1.0165738 1 6
17.372372 -79.810715 -1.425722 49 7
4.0802851 -19.032831 -1.0201325 1 6
17.093672 -79.870872 -1.425722 49 7
4.0171199 -19.062593 -1.02097 1 6
16.821363 -79.961372 -1.4262805 49 7
3.9675651 -19.158642 -1.0253662 1 6
16.576145 -80.184097 -1.4292126 49 7
3.9006639 -19.172375 -1.0253662 1 6
16.375746 -80.633408 -1.4361935 49 7
3.8587646 -19.31122 -1.0320652 1 6
3.8090169 -19.414726 -1.03688 1 6
16.849262 -86.040382 -1.5303667 54 7
3.7555771 -19.50243 -1.0408576 1 6
3.6908834 -19.514778 -1.0408576 1 6
3.6409566 -19.625731 -1.0460912 1 6
16.022108 -86.531784 -1.5360911 54 7
15.723518 -86.606865 -1.53644 54 7
3.5262952 -19.77651 -1.0527902 1 6
3.4572403 -19.788698 -1.0527902 1 6
3.4171128 -19.969948 -1.0617919 1 6
14.841311 -86.916573 -1.5390928 54 7
3.3308868 -19.883266 -1.0565584 1 6
12.871325 -88.337616 -1.5582206 55 7
11.026744 -83.756401 -1.4745888 51 7
10.721605 -83.695206 -1.4728435 51 7
10.153379 -82.573433 1.4521798 63 8
2.5252383 -20.806555 -1.0984272 1 6
9.8650799 -82.608368 1.4521798 63 8
7.3498759 -83.673019 1.4661417 63 8
5.2625227 -90.717651 -1.5861444 56 7
0.053834558 -0.98764199 0.26503071 0 15
2.9775467 -84.841255 4.44908 53 9
-1.4067202 -83.084061 4.3548756 51 9
-4.260035 -82.386719 4.3234735 51 9
-5.6147485 -83.651016 -1.4634192 51 7
-8.0534296 -78.873848 -1.383906 46 7
-8.3287125 -78.845253 -1.383906 46 7
-8.625576 -79.014488 -1.3873965 47 7
-8.8875532 -78.985443 -1.3873965 47 7
-8.9197941 -75.589088 3.9889421 43 9
-9.2250414 -77.134491 -1.3559822 45 7
-9.1605844 -75.258492 3.9732418 43 9
-9.5165033 -77.171608 -1.3572388 45 7
-9.7868242 -77.145851 -1.3573784 45 7
-10.084501 -77.329338 -1.3612179 45 7
-9.9209623 -75.154465 1.3232065 55 8
-10.164438 -74.980659 1.3207632 54 8
-10.542378 -76.662735 -1.3507465 44 7
-10.417835 -74.885315 1.3197161 54 8
-10.778074 -76.39975 -1.3467674 44 7
-10.850104 -75.108795 -1.3246377 42 7
-11.071831 -75.802017 1.3371685 56 8
-12.008695 -73.980286 -1.3082324 41 7
-12.270789 -73.961586 -1.3086512 41 7
-12.766342 -76.044014 4.041069 45 9
-12.506159 -73.784241 -1.3062778 41 7
-13.065454 -76.195847 4.0515361 45 9
-12.789558 -73.889877 -1.3089304 41 7
-13.345386 -74.096313 -1.3141662 42 7
-13.640074 -74.245956 -1.3176566 42 7
-0.15745614 -0.78019285 0.21326691 2 15
-0.15726024 -0.77020586 0.096520528 3 11
-0.15675798 -0.76638162 0.12389611 2 12
-0.15947287 -0.7789616 0.15455531 4 13
-0.16017859 -0.77963847 0.21326691 2 15
-0.16431317 -0.79204595 0.070770465 5 10
-0.14540702 -0.69968385 0.087745935 4 11
-0.15943222 -0.76582974 0.12389611 2 12
-0.15017676 -0.72074091 0.14310676 5 13
-0.15499136 -0.74125546 0.20291413 2 15
-0.14214143 -0.67509323 0.012042161 15 8
-0.16281271 -0.77193433 0.04134541 22 9
-0.15355805 -0.72805572 -0.14463322 5 2
-0.15637745 -0.7407825 0.066238366 6 10
-0.1510869 -0.71510279 -0.11576151 3 3
-0.1527767 -0.72247773 0.090670794 4 11
-0.14920361 -0.70497239 -0.08847715 7 4
-0.14982387 -0.70729369 0.11451004 3 12
-0.14904982 -0.70363951 -0.062926449 5 5
-0.15350607 -0.72405338 0.14386998 5 13
-0.16748688 -0.78931868 -0.042287458 4 6
-0.15505107 -0.73008466 0.17231251 5 14
-0.15216823 -0.71589506 -0.012775162 7 7
-0.14712623 -0.69158119 0.18945555 6 15
-0.1580783 -0.73862779 -0.20239651 3 0
-0.15957497 -0.74498522 0.013298733 11 8
-0.15400149 -0.71835297 -0.16961309 6 1
-0.1554503 -0.72449374 0.038833283 26 9
-0.14786123 -0.68912399 -0.13700087 6 2
-0.14892252 -0.69348055 0.062054887 7 10
-0.15441225 -0.71843362 -0.11638726 3 3
-0.14611353 -0.67924464 0.085308552 4 11
-0.1491567 -0.69280356 -0.08701472 7 4
-0.15395619 -0.71449059 0.11576151 6 12
-0.15318371 -0.71090561 -0.063623689 4 5
-0.14609948 -0.67745399 0.13471116 12 13
-0.1702411 -0.78872919 -0.042287458 4 6
-0.15183784 -0.70287174 0.16601388 12 14
-0.15297583 -0.70754141 -0.012635542 8 7
-0.1515823 -0.70050418 0.19204374 15 15
-0.16065574 -0.73807144 -0.20239651 3 0
-0.16132319 -0.74051589 0.013228924 12 8
-0.14654471 -0.67211485 -0.15881544 8 1
-0.1520168 -0.69662803 0.037367877 29 9
-0.15194002 -0.69627613 -0.13852733 6 2
-0.15729399 -0.72020763 0.064495243 13 10
-0.1527009 -0.69859213 -0.11325856 3 3
-0.15569565 -0.71169746 0.089452103 13 11
-0.15327239 -0.70003533 -0.08798968 7 4
-0.15940925 -0.72745597 0.11795159 13 12
-0.14926726 -0.6811735 -0.06100902 5 5
-0.15266903 -0.69611663 0.13852733 23 13
-0.15500882 -0.70619583 -0.037891235 5 6
-0.15721732 -0.71566093 0.1691632 35 14
-0.15458579 -0.70309699 -0.012565733 8 7
-0.15402661 -0.69997078 0.19204374 33 15
-0.14903703 -0.67337525 -0.18479681 4 0
-0.14920305 -0.67356771 0.012042161 15 8
-0.14804639 -0.66779411 -0.15791564 8 1
-0.15704325 -0.7077921 0.037995908 28 9
-0.15011689 -0.67657506 -0.13471116 6 2
-0.15635175 -0.70409411 0.063100755 28 10
-0.16028124 -0.72119486 -0.11701299 6 3
-0.15516196 -0.6975854 0.087745935 37 11
-0.15657772 -0.70337129 -0.08847715 14 4
-0.15851097 -0.71147025 0.11544865 37 12
-0.15770978 -0.70787424 -0.063449383 10 5
-0.15424357 -0.69174707 0.13776411 54 13
-0.15921293 -0.71344769 -0.038309924 17 6
-0.15334284 -0.68657959 0.16241467 57 14
-0.15616679 -0.69865 -0.012495923 24 7
-0.15815604 -0.7069698 0.1941143 60 15
-0.15477915 -0.68792868 -0.1889379 4 0
-0.15550682 -0.69060045 0.012356304 42 8
-0.15209016 -0.67487752 -0.15971525 8 1
-0.15687649 -0.69554979 0.037367877 58 9
-0.14859022 -0.65881062 -0.13127659 20 2
-0.15968597 -0.70743102 0.063449383 56 10
-0.15975063 -0.70714325 -0.11482291 24 3
-0.1597849 -0.70672071 0.088964626 58 11
-0.15640341 -0.69120365 -0.08701472 29 4
-0.15881196 -0.7012797 0.11388431 70 12
-0.15973964 -0.70537621 -0.063275069 25 5
-0.16273257 -0.71801019 0.14310676 82 13
-0.162586 -0.71678317 -0.038519271 34 6
-0.15703285 -0.69174129 0.16376437 68 14
-0.15860452 -0.69810069 -0.012495923 57 7
-0.15676786 -0.68945962 0.18945555 68 15
-0.15502633 -0.67796808 -0.18634972 21 0
-0.15970092 -0.69785064 0.012495923 98 8
-0.15792546 -0.68953896 -0.16331446 30 1
-0.16019584 -0.69889146 0.037577223 100 9
-0.15439799 -0.67359698 -0.13432954 38 2
-0.15948145 -0.69521761 0.062403511 58 10
-0.16133411 -0.70273066 -0.11419717 52 3
-0.1626953 -0.70809335 0.089208372 76 11
-0.15881522 -0.6906535 -0.08701472 50 4
-0.1586009 -0.68917072 0.11200709 68 12
-0.15773267 -0.68539792 -0.061531954 42 5
-0.15686586 -0.68108755 0.135856 79 13
-0.16418986 -0.71231884 -0.038309924 51 6
-0.16032253 -0.6949867 0.16466418 100 14
-0.15834139 -0.68585211 -0.012286494 76 7
-0.15699908 -0.67949682 0.18686737 84 15
-0.15389428 -0.66236895 -0.18220863 39 0
-0.15851276 -0.68170708 0.012216684 100 8
-0.16077314 -0.69088155 -0.16376437 67 1
-0.16082239 -0.69054717 0.037158534 100 9
-0.15674835 -0.67305392 -0.13432954 70 2
-0.16235952 -0.69659704 0.062577821 72 10
-0.1597475 -0.68484962 -0.11138135 71 3
-0.15929955 -0.68239051 0.086039767 82 11
-0.16167663 -0.69202793 -0.087258458 58 4
-0.16190498 -0.69245988 0.11263283 87 12
-0.15876329 -0.67902303 -0.06100902 69 5
-0.15924236 -0.68053585 0.135856 100 13
-0.16530913 -0.70590734 -0.037995908 82 6
-0.16408144 -0.70011479 0.16601388 98 14
-0.16484421 -0.70281696 -0.012600638 100 7
-0.1584871 -0.67518318 0.18583208 91 15
-0.15842436 -0.67122865 -0.18479681 76 0
-0.16318987 -0.6908803 0.012391209 100 8
-0.15825234 -0.66945493 -0.15881544 88 1
-0.16357085 -0.69195378 0.037263203 100 9
-0.15819286 -0.66868156 -0.13356631 84 2
-0.16387208 -0.69214851 0.062229201 73 10
-0.15803806 -0.66698843 -0.10856552 85 3
-0.16305457 -0.68762493 0.086770974 99 11
-0.16305457 -0.68762493 -0.086770974 73 4
-0.16511263 -0.69576317 0.11325856 100 12
-0.16205341 -0.68234158 -0.061357643 78 5
-0.15889297 -0.66851556 0.13356631 95 13
-0.16176377 -0.68006647 -0.036635175 89 6
-0.16595128 -0.69767106 0.16556399 100 14
-0.16393235 -0.68864906 -0.012356304 100 7
-0.16341136 -0.68592942 0.1889379 100 15
-0.16154939 -0.67445701 -0.18583208 76 0
-0.1682768 -0.702003 0.012600638 100 8
-0.16183527 -0.67461139 -0.16016515 100 1
-0.16027364 -0.66810167 0.03600714 100 9
-0.15995112 -0.66624433 -0.13318469 100 2
-0.16616638 -0.69160134 0.062229201 81 10
-0.16532905 -0.68758768 -0.11200709 100 3
-0.16347627 -0.67936045 0.085796028 87 11
-0.16254742 -0.67550039 -0.085308552 83 4
-0.1669565 -0.69329137 0.1129457 100 12
-0.16338159 -0.6779266 -0.06100902 91 5
-0.16248992 -0.67371058 0.13471116 100 13
-0.16636121 -0.68923378 -0.037158534 91 6
-0.16460603 -0.68196213 0.16196476 100 14
-0.16527598 -0.68421412 -0.012286494 100 7
-0.16477726 -0.68162829 0.18790263 100 15
-0.16196011 -0.66640878 -0.18376154 96 0
-0.17013124 -0.69949806 0.012565733 100 8
-0.16499326 -0.67785794 -0.16106495 100 1
-0.16307749 -0.66947871 0.036111813 9 9
-0.1593717 -0.6542654 -0.13089497 100 2
-0.17129014 -0.70266068 0.063275069 99 10
-0.16667195 -0.68319744 -0.11138135 100 3
-0.16243251 -0.66531545 0.08408986 85 11
-0.16726008 -0.68457079 -0.086527243 95 4
-0.1670296 -0.68311006 0.11138135 97 12
-0.16657524 -0.68125176 -0.061357643 84 5
-0.16612308 -0.67888904 0.135856 100 13
-0.16674557 -0.68091857 -0.036739845 100 6
-0.16513015 -0.67381245 0.16016515 100 14
-0.16385281 -0.66809589 -0.012007256 100 7
-0.16623472 -0.67729658 0.18686737 100 15
-0.16243425 -0.65833694 -0.18169098 100 0
-0.16969565 -0.68725157 0.012356304 100 8
-0.16642347 -0.67349416 -0.16016515 100 1
-0.16733126 -0.67666072 0.036530498 10 9
-0.15976937 -0.64608169 -0.1293685 100 2
-0.16991277 -0.68658614 0.061880577 100 10
-0.16763103 -0.67685914 -0.11044274 100 3
-0.17191704 -0.69364625 0.087745935 100 11
-0.16869299 -0.68012929 -0.086039767 100 4
-0.16941303 -0.68252289 0.11138135 100 12
-0.16415238 -0.66132909 -0.059614524 95 5
-0.16896507 -0.68021035 0.13623764 100 13
-0.17201248 -0.691962 -0.037367877 100 6
-0.16983348 -0.68268746 0.16241467 100 14
-0.16618384 -0.66751987 -0.012007256 100 7
-0.1648616 -0.66171581 0.18272625 100 15
-0.16520055 -0.65963995 -0.18220863 100 0
-0.1701491 -0.67889619 0.012216684 100 8
-0.16735108 -0.66723859 -0.15881544 100 1
-0.17358203 -0.69156992 0.037367877 10 9
-0.16536927 -0.65884936 -0.13203983 100 2
-0.17230847 -0.68598878 0.061880577 100 10
-0.16806646 -0.66860676 -0.10919127 100 3
-0.16755751 -0.66609037 0.084333591 100 11
-0.171066 -0.67953628 -0.086039767 100 4
-0.17275961 -0.68575841 0.11200709 100 12
-0.16938023 -0.67234421 -0.060660396 80 5
-0.16653903 -0.66057956 0.13242145 100 13
-0.17344959 -0.6874842 -0.037158534 91 6
-0.1741236 -0.68964821 0.16421427 100 14
-0.17145218 -0.6785683 -0.012216684 100 7
-0.16811749 -0.66488212 0.18376154 100 15
-0.16940556 -0.66654855 -0.18427916 100 0
-0.17153199 -0.6744222 0.012146875 100 8
-0.16823724 -0.66098475 -0.15746574 100 1
-0.17205116 -0.67547607 0.036530498 10 9
-0.1676681 -0.65826809 -0.13203983 100 2
-0.17519401 -0.6873138 0.062054887 100 10
-0.16991109 -0.66610199 -0.1088784 100 3
-0.1698816 -0.66550142 0.084333591 100 11
-0.17441957 -0.68278176 -0.086527243 100 4
-0.17613082 -0.68897879 0.11263283 100 12
-0.17123267 -0.66981852 -0.060486082 88 5
-0.16884388 -0.65999418 0.13242145 100 13
-0.17139028 -0.66946077 -0.036216486 100 6
-0.17314437 -0.67582184 0.16106495 100 14
-0.17431635 -0.67990273 -0.012251589 100 7
-0.17187774 -0.66990495 0.18531445 97 15
-0.17028408 -0.6603412 -0.18272625 100 0
-0.1773829 -0.68737316 0.012391209 100 8
-0.16908161 -0.65473294 -0.15611602 100 1
-0.17290871 -0.66907024 0.036216486 10 9
-0.16799989 -0.65007555 -0.13051336 42 2
-0.17360139 -0.67126667 0.060660396 85 10
-0.1737199 -0.67124188 -0.10981701 100 3
-0.17270124 -0.66682601 0.084577329 100 11
-0.17231964 -0.66487426 -0.084333591 100 4
-0.17704697 -0.68262357 0.11169422 100 12
-0.17507036 -0.67500252 -0.06100902 100 5
-0.17410591 -0.67080253 0.13471116 100 13
-0.17372602 -0.66885847 -0.036216486 100 6
-0.17305125 -0.66578299 0.15881544 100 14
-0.17568184 -0.67541951 -0.012181779 100 7
-0.17372844 -0.66743141 0.18479681 87 15
-0.17209908 -0.65787381 -0.18220863 100 0
-0.17826186 -0.68094629 0.012286494 100 8
-0.1728476 -0.65979415 -0.15746574 100 1
-0.17929502 -0.68391836 0.037053861 10 9
-0.16728093 -0.63809073 -0.12822366 44 2
-0.1804937 -0.68800122 0.062229201 100 10
-0.17556031 -0.66872078 -0.10950414 100 3
-0.17704554 -0.67389888 0.085552283 97 11
-0.17665833 -0.67194813 -0.085308552 100 4
-0.17691562 -0.67244953 0.11012988 100 12
-0.17742543 -0.67438728 -0.06100902 100 5
-0.17744619 -0.67398781 0.1354744 100 13
-0.17809503 -0.67597342 -0.036635175 100 6
-0.17587104 -0.66705918 0.15926534 100 14
-0.17803845 -0.67480218 -0.012181779 33 7
-0.17802978 -0.67429227 0.18686737 50 15
-0.17203033 -0.64790279 -0.17962041 100 0
-0.18024294 -0.67835563 0.012251589 100 8
-0.1777685 -0.66857272 -0.15971525 100 1
-0.17962837 -0.67556757 0.036635175 10 9
-0.17012326 -0.63937062 -0.12860526 45 2
-0.18250148 -0.68540967 0.062054887 100 10
-0.17699295 -0.66425532 -0.1088784 89 3
-0.18104856 -0.67899966 0.086283498 100 11
-0.18116705 -0.67896807 -0.086283498 100 4
-0.18180817 -0.68137091 0.11169422 100 12
-0.17475609 -0.6544829 -0.0592659 100 5
-0.1778881 -0.66574603 0.13394792 100 13
-0.18469884 -0.69075191 -0.037472546 100 6
-0.18083325 -0.67582273 0.16151486 100 14
-0.17677459 -0.66065437 -0.011937446 100 7
-0.17438632 -0.65127331 0.1806557 40 15
-0.17429097 -0.64729834 -0.17962041 100 0
-0.17781222 -0.66037589 0.011937446 100 8
-0.17643555 -0.6548081 -0.15656593 100 1
-0.18510513 -0.68650675 0.037263203 12 9
-0.17337702 -0.64256382 -0.1293685 48 2
-0.17814124 -0.65976286 0.059788838 96 10
-0.17559025 -0.65031511 -0.10668832 52 3
-0.18226357 -0.67456287 0.085796028 100 11
-0.18393576 -0.68027985 -0.086527243 100 4
-0.18160589 -0.67119801 0.11012988 100 12
-0.17912246 -0.66156155 -0.059963148 100 5
-0.17804238 -0.65757239 0.13242145 100 13
-0.18176524 -0.67085809 -0.036425829 100 6
-0.18460326 -0.68086183 0.16286457 100 14
-0.18379235 -0.67740256 -0.012251589 100 7
-0.1756462 -0.64693195 0.17962041 27 15
-0.1805042 -0.66162676 -0.18376154 100 0
-0.18538278 -0.67904222 0.012286494 100 8
-0.1771795 -0.64854872 -0.15521623 100 1
-0.1822336 -0.66659081 0.036216486 10 9
-0.17654236 -0.64577281 -0.13013174 39 2
-0.18558544 -0.67838633 0.061531954 100 10
-0.17994547 -0.65731937 -0.10793979 31 3
-0.18199481 -0.66434973 0.084577329 100 11
-0.18368512 -0.67006135 -0.085308552 100 4
-0.1891735 -0.68961 0.11325856 100 12
-0.18447781 -0.67249238 -0.06100902 100 5
-0.18137607 -0.66073334 0.13318469 100 13
-0.1830478 -0.66636765 -0.036216486 100 6
-0.1833632 -0.66706002 0.15971525 100 14
-0.18827718 -0.68446928 -0.012391209 100 7
-0.17328916 -0.62955165 0.17496169 25 15
-0.18075277 -0.65354484 -0.18169098 100 0
-0.18721859 -0.67646372 0.012251589 100 8
-0.17996241 -0.64980429 -0.15566613 33 1
-0.18295905 -0.66017658 0.03590247 10 9
-0.1772224 -0.63947684 -0.1289869 100 2
-0.19114697 -0.68925393 0.062577821 100 10
-0.18065417 -0.65097684 -0.10700119 32 3
-0.18431267 -0.66371047 0.084577329 100 11
-0.18602306 -0.66941607 -0.085308552 100 4
-0.18840422 -0.67752647 0.11138135 100 12
-0.18575656 -0.66800517 -0.060660396 100 5
-0.18473393 -0.66387904 0.13394792 100 13
-0.18644428 -0.66957277 -0.036425829 100 6
-0.18412136 -0.66078424 0.15836555 100 14
-0.18690562 -0.67032444 -0.012146875 100 7
-0.17704324 -0.6345253 0.1765146 28 15
-0.18407582 -0.65663022 -0.18272625 100 0
-0.19389966 -0.69120908 0.012530828 100 8
-0.18433629 -0.65667707 -0.15746574 33 1
-0.19000539 -0.67687255 0.036844518 12 9
-0.17892253 -0.63696426 -0.12860526 100 2
-0.19139521 -0.68091023 0.061880577 100 10
-0.18239056 -0.64844072 -0.10668832 28 3
-0.1893176 -0.6726172 0.085796028 92 11
-0.18835856 -0.66876268 -0.085308552 100 4
-0.19118543 -0.67879939 0.11169422 100 12
-0.18808714 -0.66735268 -0.060660396 100 5
-0.18811607 -0.66700917 0.13471116 100 13
-0.19040774 -0.67468446 -0.036739845 100 6
-0.18907484 -0.66951442 0.16061506 92 14
-0.18695362 -0.66200316 -0.012007256 100 7
-0.17862108 -0.63207561 0.17599694 28 15
-0.18425505 -0.64855033 -0.1806557 100 0
-0.19509777 -0.68671513 0.012461019 100 8
-0.1902431 -0.66918343 -0.16061506 100 1
-0.19783185 -0.69541562 0.037891235 11 9
-0.18060744 -0.63444757 -0.12822366 100 2
-0.19267914 -0.67640567 0.061531954 100 10
-0.18399863 -0.6459325 -0.10637545 28 3
-0.19154698 -0.67198575 0.085796028 87 11
-0.19275323 -0.67577016 -0.086283498 100 4
-0.19409589 -0.68002743 0.11200709 100 12
-0.18713246 -0.65519738 -0.059614524 100 5
-0.18924852 -0.66260618 0.13394792 100 13
-0.19483943 -0.68173081 -0.037158534 85 6
-0.19236571 -0.67263103 0.16151486 91 14
-0.19036378 -0.66519159 -0.012077065 100 7
-0.17391238 -0.60730469 0.16926767 30 15
-0.18747289 -0.65164894 -0.18169098 100 0
-0.19196156 -0.66681337 0.012111969 100 8
-0.1888018 -0.65540713 -0.15746574 34 1
-0.19527932 -0.67744875 0.036949188 100 9
-0.18814808 -0.65270954 -0.13203983 100 2
-0.19547331 -0.67767733 0.061706264 75 10
-0.17913094 -0.62061357 -0.10230815 29 3
-0.19278984 -0.66749871 0.085308552 87 11
-0.19511089 -0.67509323 -0.086283498 88 4
-0.19811484 -0.68503857 0.1129457 100 12
-0.19151826 -0.662229 -0.060311772 100 5
-0.19156033 -0.66194153 0.13394792 100 13
-0.1949957 -0.67337275 -0.036739845 100 6
-0.19742432 -0.68131417 0.16376437 81 14
-0.19435519 -0.67028481 -0.012181779 100 7
-0.17764625 -0.61225986 0.17082058 30 15
-0.19082761 -0.65469992 -0.18272625 100 0
-0.1993271 -0.68341666 0.012426113 100 8
-0.1889046 -0.64726126 -0.15566613 34 1
-0.1959632 -0.67101145 0.036635175 100 9
-0.18877427 -0.64639527 -0.13089497 87 2
-0.19727892 -0.67507845 0.061531954 67 10
-0.18018727 -0.61619258 -0.10168242 35 3
-0.19511859 -0.66682172 0.085308552 73 11
-0.1974663 -0.67440802 -0.086283498 73 4
-0.20217104 -0.69002992 0.11388431 80 12
-0.19550924 -0.66729248 -0.060834706 100 5
-0.19221269 -0.655617 0.13280307 100 13
-0.19509616 -0.66502196 -0.036321156 97 6
-0.19815467 -0.67501134 0.16241467 82 14
-0.19838443 -0.67535818 -0.012286494 100 7
-0.18087187 -0.61534292 0.17185585 25 15
-0.19639409 -0.66514647 -0.18583208 97 0
-0.20057835 -0.67888117 0.012356304 100 8
-0.19171531 -0.64846671 -0.15611602 100 1
-0.19603796 -0.66266245 0.036216486 100 9
-0.1899156 -0.64196718 -0.13013174 68 2
-0.2041584 -0.68966925 0.062926449 64 10
-0.18345918 -0.61934793 -0.10230815 29 3
-0.19688095 -0.66423333 0.085064806 80 11
-0.19925469 -0.67181152 -0.086039767 82 4
-0.20064431 -0.6760639 0.11169422 83 12
-0.19840425 -0.6685161 -0.06100902 100 5
-0.1978536 -0.66623414 0.13509277 81 13
-0.19912305 -0.67008054 -0.036635175 89 6
-0.1999542 -0.67244762 0.16196476 97 14
-0.19788933 -0.66507828 -0.012111969 96 7
-0.18356994 -0.61655939 0.17237349 25 15
-0.19760765 -0.66075522 -0.18479681 100 0
-0.20695987 -0.69158721 0.012600638 100 8
-0.19677281 -0.6571278 -0.15836555 100 1
-0.19777665 -0.66006094 0.036111813 100 9
-0.18539329 -0.61873257 -0.12555233 58 2
-0.20313129 -0.67750168 0.061880577 66 10
-0.18675531 -0.6224879 -0.10293389 29 3
-0.20205222 -0.67304832 0.086283498 71 11
-0.20045637 -0.66730952 -0.085552283 82 4
-0.20243435 -0.67346758 0.11138135 72 12
-0.19958954 -0.66400331 -0.060660396 96 5
-0.2030053 -0.67493975 0.13700087 84 13
-0.20606577 -0.68468148 -0.037472546 84 6
-0.20342416 -0.6754775 0.16286457 95 14
-0.20194055 -0.67012745 -0.012216684 100 7
-0.18349022 -0.60851651 0.17030294 26 15
-0.19711304 -0.6508168 -0.18220863 96 0
-0.204153 -0.67363691 0.012286494 100 8
-0.19849983 -0.65457201 -0.15791564 100 1
-0.20761864 -0.68421221 0.037472546 100 9
-0.18071108 -0.59553766 -0.1209729 31 2
-0.20433734 -0.6729756 0.061531954 60 10
-0.18663001 -0.61427194 -0.10168242 30 3
-0.20613253 -0.67803681 0.08701472 57 11
-0.20451771 -0.67230326 -0.086283498 59 4
-0.20535924 -0.67464662 0.11169422 58 12
-0.20086077 -0.65945542 -0.060311772 93 5
-0.20536 -0.67422706 0.13700087 54 13
-0.20670761 -0.67822653 -0.037158534 55 6
-0.20805463 -0.68221921 0.16466418 100 14
-0.20369495 -0.6675058 -0.012181779 77 7
-0.18222812 -0.59678644 0.16719711 23 15
-0.20063058 -0.65378368 -0.18324389 100 0
-0.20767643 -0.67674357 0.012356304 99 8
-0.20307165 -0.66132671 -0.15971525 100 1
-0.2135254 -0.6949383 0.038100582 100 9
-0.17943093 -0.58361197 -0.1186832 31 2
-0.20563079 -0.66841352 0.06118333 53 10
-0.18481208 -0.60036808 -0.099492334 31 3
-0.20616204 -0.66972411 0.086039767 34 11
-0.20978498 -0.68107098 -0.087502196 65 4
-0.21004018 -0.68147671 0.1129457 29 12
-0.20316158 -0.65875024 -0.060311772 77 5
-0.20493522 -0.66408998 0.13509277 43 13
-0.20978133 -0.67937267 -0.037263203 61 6
-0.21515596 -0.69634718 0.16826339 100 14
-0.20897529 -0.67634362 -0.012356304 67 7
-0.18316896 -0.59245539 0.16616184 19 15
-0.2052042 -0.66045874 -0.18531445 85 0
-0.21312375 -0.6855256 0.012530828 97 8
-0.20202103 -0.64941323 -0.15701583 99 1
-0.20479262 -0.65791792 0.036111813 63 9
-0.18263404 -0.58673114 -0.11944644 31 2
-0.20440786 -0.65627813 0.060137462 23 10
-0.18808207 -0.60349113 -0.10011807 26 3
-0.20506945 -0.65759349 0.084577329 15 11
-0.20873198 -0.66892761 -0.086039767 52 4
-0.20959279 -0.67127424 0.11138135 10 12
-0.21021025 -0.67325187 -0.061706264 47 5
-0.20900854 -0.66899234 0.13623764 18 13
-0.20917188 -0.66910487 -0.036739845 43 6
-0.21351285 -0.68257278 0.16511407 100 14
-0.21384212 -0.68320674 -0.012495923 57 7
-0.18707134 -0.59731072 0.16771474 15 15
-0.20750847 -0.65973842 -0.18531445 55 0
-0.20771119 -0.65998054 0.012077065 45 8
-0.20311591 -0.64498663 -0.15611602 67 1
-0.20948897 -0.6648187 0.036530498 61 9
-0.18114081 -0.57485509 -0.11715673 32 2
-0.21089132 -0.66886181 0.061357643 7 10
-0.19315913 -0.61225015 -0.10168242 26 3
-0.21035151 -0.66633874 0.085796028 4 11
-0.20568444 -0.65115881 -0.083846115 23 4
-0.22026931 -0.696908 0.11576151 3 12
-0.20895648 -0.66111541 -0.060660396 37 5
-0.21844637 -0.69072121 0.14081705 11 13
-0.21090358 -0.66646653 -0.036635175 19 6
-0.21530601 -0.67996556 0.16466418 100 14
-0.21260172 -0.67101836 -0.012286494 25 7
-0.18915515 -0.59665406 0.16771474 15 15
-0.20570767 -0.64612442 -0.18169098 31 0
-0.21365549 -0.67068356 0.012286494 14 8
-0.20714171 -0.64984381 -0.15746574 57 1
-0.21775816 -0.68314964 0.037577223 28 9
-0.17360117 -0.54429251 -0.11105084 34 2
-0.21564773 -0.6757139 0.062054887 7 10
-0.20310703 -0.63603508 -0.10574972 28 3
-0.21581499 -0.67501736 -0.08701472 7 4
-0.2051921 -0.64140558 -0.058917284 11 5
-0.21606793 -0.67499614 0.13776411 6 13
-0.21566559 -0.67333448 -0.037053861 6 6
-0.21886766 -0.68292141 0.16556399 100 14
-0.20872273 -0.65126669 -0.011937446 9 7
-0.18877304 -0.58866525 0.1656442 15 15
-0.20559186 -0.6380474 -0.17962041 13 0
-0.21097207 -0.65474468 0.012007256 15 8
-0.20989347 -0.65100801 -0.15791564 16 1
-0.22382063 -0.69379008 0.038205251 27 9
-0.17851552 -0.55302483 -0.11295893 34 2
-0.20642929 -0.63911754 -0.10637545 28 3
-0.23026808 -0.71207374 -0.091889486 6 4
-0.21970364 -0.67859572 -0.062403511 5 5
-0.22193339 -0.68548268 0.14005381 5 13
-0.24867377 -0.76761788 -0.042287458 4 6
-0.22173202 -0.68404561 0.16601388 100 14
-0.22209981 -0.68477279 -0.012565733 8 7
-0.18963407 -0.5843277 0.16460893 11 15
-0.22788052 -0.6984396 -0.16961309 6 1
-0.18156698 -0.55616248 -0.11372217 41 2
-0.20681788 -0.63276023 -0.10543684 28 3
-0.21699005 -0.66231567 0.1354744 6 13
-0.22715519 -0.6925258 0.16826339 100 14
-0.19096832 -0.58186007 0.16409127 7 15
-0.18289152 -0.55366111 -0.11334055 34 2
-0.22193353 -0.67145813 -0.11200709 29 3
-0.22883698 -0.68991911 0.16781349 100 14
-0.19117169 -0.57568973 0.16253836 8 15
-0.18099469 -0.54187876 -0.11105084 43 2
-0.22928779 -0.68566662 -0.11451004 42 3
-0.22149318 -0.66082335 0.1354744 6 13
-0.22690417 -0.67618364 0.16466418 100 14
-0.1919497 -0.57135636 0.16150309 4 15
-0.18037117 -0.53380394 -0.10952436 35 2
-0.23357874 -0.69047564 -0.11544865 50 3
-0.18838806 -0.55656874 0.072146654 6 11
-0.20488594 -0.60426766 0.12402585 7 13
-0.22801033 -0.67169678 0.16376437 100 14
-0.19642934 -0.57799935 0.16357364 4 15
-0.1809635 -0.5294556 -0.10876114 44 2
-0.16504617 -0.48261014 0.04462374 11 10
-0.23215036 -0.67844218 -0.11357144 59 3
-0.19032973 -0.55590779 0.072146654 6 11
-0.21264969 -0.62039232 0.1038725 4 12
-0.21060495 -0.61442691 -0.056825541 6 5
-0.20699407 -0.60354877 0.12402585 7 13
-0.23478349 -0.68379867 0.16691369 100 14
-0.19593377 -0.57000238 0.16150309 4 15
-0.18088622 -0.52325416 -0.10761628 36 2
-0.16672975 -0.48203108 0.04462374 11 10
-0.23193295 -0.67016071 -0.11231996 76 3
-0.19226907 -0.55523998 0.072146654 6 11
-0.20276414 -0.58521765 -0.076046474 9 4
-0.19152088 -0.55245566 0.092609212 4 12
-0.21274842 -0.61368805 -0.056825541 6 5
-0.18079066 -0.52120966 0.10723466 8 13
-0.19907635 -0.57360274 -0.031820264 8 6
-0.23780817 -0.68481588 0.16736358 100 14
-0.18770592 -0.54023224 -0.0099827768 11 7
-0.19792229 -0.56931496 0.16150309 4 15
-0.18459867 -0.52860934 0.0097733475 20 8
-0.18258058 -0.52224487 0.028994123 44 9
-0.18400741 -0.52632612 -0.10837951 35 2
-0.18156853 -0.51905912 0.048109971 10 10
-0.235576 -0.67307603 -0.1129457 76 3
-0.194206 -0.55456549 0.072146654 6 11
-0.18905142 -0.53954422 -0.070196748 10 4
-0.19344817 -0.5517838 0.092609212 4 12
-0.19115923 -0.54525489 -0.05055033 7 5
-0.1891074 -0.53910118 0.11105084 8 13
-0.20107733 -0.57290435 -0.031820264 8 6
-0.23632306 -0.67294967 0.16466418 100 14
-0.18959063 -0.53957373 -0.0099827768 11 7
-0.18837513 -0.5358156 0.1521856 8 15
-0.18910617 -0.5355041 0.0099129668 20 8
-0.18706536 -0.52913654 0.029412812 43 9
-0.17995416 -0.50902164 -0.10494495 27 2
-0.18869458 -0.53344887 0.049504459 10 10
-0.24056023 -0.67969835 -0.11419717 66 3
-0.20276707 -0.57259649 0.074584045 6 11
-0.18562986 -0.52391213 -0.068246834 10 4
-0.19801322 -0.55855256 0.093860693 9 12
-0.18374109 -0.51829404 -0.048109971 7 5
-0.19098814 -0.53843772 0.11105084 16 13
-0.20307595 -0.57219893 -0.031820264 8 6
-0.22823697 -0.64273828 0.15746574 75 14
-0.19147289 -0.53890866 -0.0099827768 11 7
-0.18506764 -0.52059275 0.1480445 22 15
-0.19231911 -0.53860724 0.0099827768 20 8
-0.18218839 -0.50967324 0.028366093 45 9
-0.17776483 -0.4972983 -0.10265525 28 2
-0.19323942 -0.54029101 0.050201707 20 10
-0.24692477 -0.69001377 -0.11607439 67 3
-0.20275703 -0.56627852 0.073852822 18 11
-0.18879659 -0.52699852 -0.068734311 10 4
-0.19529603 -0.54484129 0.09167061 19 12
-0.18554923 -0.51764947 -0.048109971 7 5
-0.19021533 -0.53037584 0.10952436 25 13
-0.19158049 -0.53388876 -0.029726826 8 6
-0.20545571 -0.57224154 0.14036946 57 14
-0.19335282 -0.53823704 -0.0099827768 11 7
-0.19211122 -0.53448743 0.1521856 39 15
-0.19012401 -0.52664727 0.0097733475 20 8
-0.18338285 -0.50769669 -0.12462288 11 1
-0.20025854 -0.5541147 0.030878218 40 9
-0.18216872 -0.50406021 -0.10418171 37 2
-0.19647926 -0.54336053 0.05055033 41 10
-0.24193931 -0.66871464 -0.11263283 61 3
-0.20000261 -0.55250138 0.072146654 44 11
-0.19333901 -0.53380209 -0.069709271 10 4
-0.19719665 -0.54415625 0.09167061 38 12
-0.19550087 -0.53947681 -0.050201707 7 5
-0.18805031 -0.51863456 0.10723466 52 13
-0.20706563 -0.57076728 -0.031820264 16 6
-0.19548352 -0.53854853 0.13227122 63 14
-0.19523053 -0.53755879 -0.0099827768 23 7
-0.18803777 -0.51747239 0.14752688 45 15
-0.18373427 -0.50343847 0.0093544899 43 8
-0.19584869 -0.53634179 -0.13182132 10 1
-0.19945003 -0.54590833 0.030459529 41 9
-0.18460093 -0.50526536 -0.10456334 37 2
-0.19427037 -0.53144366 0.049504459 52 10
-0.23205841 -0.63447273 -0.10700119 36 3
-0.19510812 -0.533158 0.069709271 59 11
-0.19929631 -0.54430842 -0.071171708 40 4
-0.19841541 -0.54160982 0.091357745 42 12
-0.19738281 -0.53879112 -0.050201707 29 5
-0.18985949 -0.51797497 0.10723466 70 13
-0.20149218 -0.54941452 -0.030668873 41 6
-0.19669095 -0.53603345 0.13182132 63 14
-0.19779485 -0.53875118 -0.010017681 58 7
-0.18851066 -0.51318616 0.14649159 49 15
-0.18825899 -0.51029837 0.0094941091 43 8
-0.1909716 -0.51737314 -0.1273223 11 1
-0.19443496 -0.5264731 0.029412812 43 9
-0.18772379 -0.50830126 -0.10532658 46 2
-0.1975055 -0.5345 0.049853083 62 10
-0.20276156 -0.54842985 -0.092609212 48 3
-0.19559054 -0.52875012 0.069221795 59 11
-0.19774994 -0.53430092 -0.069953009 62 4
-0.20167674 -0.54461879 0.091983475 57 12
-0.19511105 -0.52688843 -0.049155835 51 5
-0.19303055 -0.52099103 0.1079979 77 13
-0.20132609 -0.54308969 -0.030354859 59 6
-0.19585013 -0.52803516 0.13002171 63 14
-0.20384867 -0.54930609 -0.01022711 56 7
-0.19433551 -0.52339119 0.14959741 48 15
-0.23005673 -0.61728483 -0.1765146 4 0
-0.1907378 -0.5115118 0.0095290132 64 8
-0.19141403 -0.51305175 -0.12642249 11 1
-0.20325634 -0.54450256 0.030459529 83 9
-0.18812385 -0.50396425 -0.10456334 46 2
-0.20146129 -0.53940672 0.050376017 71 10
-0.20121732 -0.53846675 -0.091044866 55 3
-0.19534954 -0.52248597 0.06849058 67 11
-0.19544065 -0.52245194 -0.06849058 74 4
-0.19803704 -0.52911115 0.089480527 58 12
-0.20183779 -0.53926593 -0.050376017 57 5
-0.192094 -0.51295978 0.10647143 62 13
-0.20251985 -0.54051328 -0.030250184 68 6
-0.1942718 -0.51822466 0.1277722 75 14
-0.20365807 -0.54297417 -0.010122396 81 7
-0.19548255 -0.52090096 0.14907978 61 15
-0.2444676 -0.64901936 -0.18583208 4 0
-0.19322732 -0.51271415 0.0095639192 85 8
-0.1932037 -0.51238048 -0.12642249 11 1
-0.2023357 -0.53631502 0.03004084 84 9
-0.18433782 -0.48860949 -0.10151039 38 2
-0.19982493 -0.52938014 0.049504459 73 10
-0.200304 -0.53036916 -0.089793392 61 3
-0.20138218 -0.53294253 0.069953009 66 11
-0.19796517 -0.52362335 -0.068734311 73 4
-0.19708727 -0.52102613 0.088229045 60 12
-0.20301414 -0.53669459 -0.050201707 65 5
-0.20013766 -0.52881151 0.10990599 76 13
-0.20723446 -0.54727441 -0.030668873 67 6
-0.19607963 -0.51754332 0.1277722 75 14
-0.19775529 -0.5216915 -0.0097384425 97 7
-0.19592954 -0.51660281 0.1480445 49 15
-0.23023695 -0.60483086 -0.17340876 19 0
-0.1978628 -0.51951152 0.0097035384 84 8
-0.18943979 -0.49713483 -0.12282327 23 1
-0.20269074 -0.53190845 0.029831499 85 9
-0.18534282 -0.48612863 -0.10112877 38 2
-0.20025137 -0.52495629 0.049155835 84 10
-0.20285851 -0.53151232 -0.090106264 70 3
-0.20182495 -0.5285275 0.069465533 66 11
-0.20545964 -0.53776401 -0.070684224 82 4
-0.20304403 -0.53144145 0.090106264 58 12
-0.20275204 -0.53039956 -0.049678776 87 5
-0.19707306 -0.51527369 0.10723466 70 13
-0.21199876 -0.55400908 -0.031087562 66 6
-0.20415595 -0.53323501 0.13182132 81 14
-0.20234422 -0.52850288 -0.0098780626 95 7
-0.19556844 -0.51053822 0.14649159 54 15
-0.23858905 -0.62025094 -0.17806751 37 0
-0.18953353 -0.4927232 0.0092148706 89 8
-0.19388707 -0.5037787 -0.12462288 23 1
-0.20454614 -0.53119773 0.029831499 85 9
-0.18986189 -0.49280664 -0.10265525 38 2
-0.20208254 -0.52425408 0.049155835 73 10
-0.20390941 -0.52899349 -0.089793392 76 3
-0.20357651 -0.52785528 0.069465533 66 11
-0.20724182 -0.53707969 -0.070684224 92 4
-0.20489788 -0.53072947 0.090106264 53 12
-0.20173059 -0.52225441 -0.048981529 81 5
-0.19807322 -0.51278597 0.10685304 70 13
-0.20807491 -0.53839928 -0.030250184 76 6
-0.20592313 -0.53255504 0.13182132 72 14
-0.20418775 -0.52779335 -0.0098780626 95 7
-0.198744 -0.51345563 0.14752688 49 15
-0.24204351 -0.6230579 -0.17910279 40 0
-0.1970478 -0.50696951 0.0094941091 86 8
-0.18434367 -0.47403899 -0.11742445 24 1
-0.21219279 -0.54537112 0.030668873 82 9
-0.19434249 -0.49949288 -0.10418171 37 2
-0.20381995 -0.52358109 0.049155835 73 10
-0.19715175 -0.50619024 -0.086038962 64 3
-0.2010933 -0.51604366 0.068003103 54 11
-0.20695198 -0.53080451 -0.069953009 83 4
-0.20962071 -0.53737235 0.091357745 47 12
-0.20934752 -0.53639525 -0.050376017 78 5
-0.19772068 -0.50660473 0.10570819 62 13
-0.20704705 -0.53022796 -0.029831499 69 6
-0.20849 -0.53364807 0.13227122 63 14
-0.20966901 -0.53638965 -0.010052586 81 7
-0.20405325 -0.5217545 0.15011506 39 15
-0.24573784 -0.62576294 -0.18013807 49 0
-0.20027809 -0.51000124 0.0095639192 85 8
-0.19098568 -0.48608893 -0.12057376 36 1
-0.20386541 -0.51860398 0.029203467 88 9
-0.19042332 -0.48416108 -0.10112877 38 2
-0.20719676 -0.52653855 0.049504459 52 10
-0.20768958 -0.52752078 -0.089793392 56 3
-0.20289335 -0.5153386 0.068003103 54 11
-0.20371082 -0.5171501 -0.068246834 85 4
-0.2093223 -0.53112388 0.090419129 39 12
-0.21048771 -0.53380781 -0.050201707 72 5
-0.2038991 -0.51683426 0.1079979 51 13
-0.20752253 -0.52574992 -0.029622154 70 6
-0.22189723 -0.56188065 0.13946965 50 14
-0.21007103 -0.53193474 -0.0099827768 82 7
-0.20374355 -0.51564896 0.14856213 21 15
-0.2407966 -0.60694438 -0.17496169 42 0
-0.20583478 -0.51855689 0.0097384425 62 8
-0.19276597 -0.48538572 -0.12057376 36 1
-0.20420001 -0.51417673 0.028994123 88 9
-0.19211222 -0.48349342 -0.10112877 38 2
-0.20756139 -0.52210915 0.049155835 42 10
-0.21098982 -0.53046364 -0.090419129 50 3
-0.19964296 -0.50168061 0.066296928 35 11
-0.20707352 -0.52008861 -0.068734311 73 4
-0.20167582 -0.50653166 0.086351842 25 12
-0.21013789 -0.52751696 -0.049678776 58 5
-0.2115168 -0.53070927 0.11105084 25 13
-0.21675417 -0.54357433 -0.030668873 58 6
-0.2570748 -0.64436299 0.16016515 39 14
-0.20673959 -0.51819682 -0.0097384425 60 7
-0.21485251 -0.53825921 0.15529144 4 15
-0.24075764 -0.60072052 -0.17340876 53 0
-0.20383368 -0.50859064 0.0095639192 42 8
-0.19727564 -0.49197882 -0.12237337 35 1
-0.21343026 -0.53199726 0.03004084 84 9
-0.19379872 -0.48281989 -0.10112877 38 2
-0.19007781 -0.47331089 0.04462374 23 10
-0.21274775 -0.52976108 -0.090419129 45 3
-0.20870644 -0.51943547 0.068734311 13 11
-0.21249907 -0.52860826 -0.069953009 51 4
-0.2093396 -0.52048612 0.088854782 5 12
-0.20454009 -0.50829673 -0.047935657 53 5
-0.23819435 -0.59192997 0.12402585 14 13
-0.21482594 -0.53358889 -0.030145515 34 6
-0.26867568 -0.6670059 0.16601388 49 14
-0.21901186 -0.54343837 -0.01022711 45 7
-0.22539929 -0.55900621 0.16150309 4 15
-0.2362268 -0.58380163 -0.16875002 50 0
-0.19960462 -0.49304751 0.0092846798 44 8
-0.19021273 -0.46961278 -0.11697455 37 1
-0.20928493 -0.51644069 0.029203467 44 9
-0.19687347 -0.48581362 -0.10189201 28 2
-0.20512149 -0.50591314 0.047761347 10 10
-0.2264764 -0.55830324 -0.095425032 38 3
-0.22992779 -0.56652761 0.075071529 6 11
-0.22778617 -0.56096965 -0.074340306 28 4
-0.23494731 -0.57831585 0.098866597 4 12
-0.20247501 -0.49838626 -0.047064099 31 5
-0.25800127 -0.63474494 0.13318469 12 13
-0.21668722 -0.53283572 -0.030145515 17 6
-0.27834657 -0.68411446 0.1705129 69 14
-0.21261398 -0.52229726 -0.0098431567 24 7
-0.2397249 -0.58655 -0.16978529 50 0
-0.21948908 -0.53677005 0.010122396 19 8
-0.19037506 -0.46533865 -0.11607475 37 1
-0.22319162 -0.54528165 0.030878218 40 9
-0.20154282 -0.49239126 -0.10341848 28 2
-0.20537609 -0.50150651 0.047412723 11 10
-0.24490038 -0.59772313 -0.10230815 42 3
-0.24244511 -0.59143621 0.078483865 5 11
-0.24857429 -0.60608685 -0.080433771 51 4
-0.21934037 -0.53454143 -0.05055033 21 5
-0.2669259 -0.650186 0.13661924 18 13
-0.22765185 -0.55424595 -0.031401578 16 6
-0.27925137 -0.67953372 0.16961309 69 14
-0.22964415 -0.55854142 -0.010541254 11 7
-0.24250808 -0.58749539 -0.17030294 40 0
-0.22136138 -0.53600067 0.010122396 39 8
-0.19199818 -0.46467128 -0.11607475 37 1
-0.22509372 -0.54449916 0.030878218 40 9
-0.21076082 -0.50982803 -0.10723466 27 2
-0.21474034 -0.51919776 0.049155835 10 10
-0.25076181 -0.60599101 -0.1038725 61 3
-0.25372708 -0.61255139 -0.081408732 66 4
-0.24866484 -0.60003388 -0.056825541 24 5
-0.2797209 -0.67463994 0.1419619 16 13
-0.2326463 -0.5608272 -0.031820264 24 6
-0.28236881 -0.68035471 0.170063 57 14
-0.24079469 -0.57989806 -0.010960111 20 7
-0.24158394 -0.57951277 -0.16823238 40 0
-0.23708676 -0.56844556 0.010750683 36 8
-0.19211809 -0.46040133 -0.11517494 37 1
-0.22699295 -0.54371017 0.030878218 40 9
-0.21934642 -0.52539462 -0.11066923 35 2
-0.25668404 -0.61422509 -0.10543684 53 3
-0.25279951 -0.60433674 -0.080433771 76 4
-0.24845028 -0.59364849 -0.056302607 42 5
-0.28965682 -0.69176859 0.14577809 21 13
-0.24231973 -0.57843316 -0.032866985 22 6
-0.28549519 -0.68116218 0.1705129 51 14
-0.24281746 -0.579054 -0.010960111 20 7
-0.23536018 -0.55908036 -0.16253836 42 0
-0.24683157 -0.58604354 0.011099731 35 8
-0.19523753 -0.46331957 -0.11607475 50 1
-0.24585739 -0.58344591 0.033180997 36 9
-0.22422987 -0.5318619 -0.11219569 34 2
-0.25114614 -0.59512579 -0.10230815 59 3
-0.25634643 -0.60715258 -0.080921248 75 4
-0.25439897 -0.6019538 -0.057174165 54 5
-0.29512811 -0.69798625 0.14730455 20 13
-0.26223472 -0.61989087 -0.035274439 33 6
-0.29230791 -0.6909802 0.17321232 49 14
-0.24551573 -0.58008724 -0.010995016 31 7
-0.24099019 -0.56718689 -0.16512655 52 0
-0.24564439 -0.57786047 0.010960111 35 8
-0.19448484 -0.4572897 -0.11472505 51 1
-0.25873432 -0.60835868 0.034646407 34 9
-0.23137303 -0.54376107 -0.11486702 33 2
-0.25002205 -0.5870201 -0.10105667 48 3
-0.26224932 -0.61543024 -0.082139947 73 4
-0.25639376 -0.60110682 -0.057174165 66 5
-0.29204708 -0.68436372 0.14463322 21 13
-0.2705628 -0.63371271 -0.036111813 45 6
-0.29230207 -0.68463045 0.17186262 61 14
-0.25607872 -0.59949833 -0.011378969 19 7
-0.2421084 -0.56460917 -0.16460893 42 0
-0.26884627 -0.62666106 0.011902542 15 8
-0.27661803 -0.6441558 0.036739845 30 9
-0.23937237 -0.55742246 -0.11791997 40 2
-0.25352743 -0.5898174 -0.10168242 39 3
-0.26204231 -0.60904062 -0.081408732 66 4
-0.26468781 -0.61489362 -0.05856866 51 5
-0.29664454 -0.68880105 0.14577809 21 13
-0.26950151 -0.62547499 -0.035693128 46 6
-0.29623297 -0.68718499 0.17276241 49 14
-0.26688108 -0.61879897 -0.011762922 27 7
-0.24407779 -0.56376058 -0.16460893 47 0
-0.27421129 -0.63305861 0.012042161 15 8
-0.29475451 -0.67983514 0.038833283 26 9
-0.23897374 -0.55117983 -0.11677512 40 2
-0.25715765 -0.59255296 -0.10230815 38 3
-0.25704837 -0.59173572 -0.07921508 69 4
-0.26842088 -0.61762053 -0.058917284 51 5
-0.30296135 -0.6967634 0.14768617 20 13
-0.27247983 -0.62636197 -0.035797797 46 6
-0.29707456 -0.68257314 0.17186262 50 14
-0.27063614 -0.62153047 -0.011832732 36 7
-0.24449676 -0.55936486 -0.16357364 42 0
-0.29725096 -0.67973393 0.012949686 12 8
-0.23932178 -0.54674524 -0.11601188 49 2
-0.25922441 -0.5916518 -0.10230815 38 3
-0.26309878 -0.59992456 -0.080433771 59 4
-0.26577196 -0.6057328 -0.057871412 47 5
-0.30381334 -0.69210631 0.14692293 25 13
-0.27868024 -0.63455033 -0.036321156 45 6
-0.30102319 -0.68510014 0.17276241 44 14
-0.27119461 -0.61692071 -0.011762922 55 7
-0.23006998 -0.52139199 -0.15270324 34 0
-0.27216333 -0.616494 0.011762922 15 8
-0.19998391 -0.45278212 -0.11427514 38 1
